ncols         76
nrows         63
xllcorner     851667.49999636
yllcorner     5836247.4999773
cellsize      5
NODATA_value  -9999
-9999 -9999 -9999 -9999 -9999 -9999 -9999 -9999 -9999 -9999 -9999 -9999 -9999 -9999 -9999 -9999 -9999 -9999 -9999 -9999 -9999 -9999 -9999 -9999 -9999 -9999 -9999 -9999 -9999 -9999 -9999 -9999 -9999 -9999 -9999 -9999 -9999 -9999 -9999 -9999 -9999 -9999 -9999 -9999 -9999 -9999 -9999 -9999 -9999 -9999 -9999 -9999 -9999 -9999 -9999 -9999 -9999 -9999 -9999 43.16 43.16 43.14 43.12 43.15 43.17 43.18 43.17 43.17 43.21 43.22 43.31 43.39 43.48 43.52 43.4 43.3 
-9999 -9999 -9999 -9999 -9999 -9999 -9999 -9999 -9999 -9999 -9999 -9999 -9999 -9999 -9999 -9999 -9999 -9999 -9999 -9999 -9999 -9999 -9999 -9999 -9999 -9999 -9999 -9999 -9999 -9999 -9999 -9999 -9999 -9999 -9999 -9999 -9999 -9999 -9999 -9999 -9999 -9999 -9999 -9999 -9999 -9999 -9999 -9999 -9999 -9999 -9999 -9999 -9999 -9999 -9999 -9999 -9999 -9999 43.13 43.19 43.19 43.2 43.2 43.19 43.18 43.18 43.19 43.19 43.23 43.32 43.4 43.53 43.63 43.62 43.56 43.5 
-9999 -9999 -9999 -9999 -9999 -9999 -9999 -9999 -9999 -9999 -9999 -9999 -9999 -9999 -9999 -9999 -9999 -9999 -9999 -9999 -9999 -9999 -9999 -9999 -9999 -9999 -9999 -9999 -9999 -9999 -9999 -9999 -9999 -9999 -9999 -9999 -9999 -9999 -9999 -9999 -9999 -9999 -9999 -9999 -9999 -9999 -9999 -9999 -9999 -9999 -9999 -9999 -9999 -9999 -9999 -9999 -9999 -9999 43.15 43.22 43.23 43.21 43.21 43.24 43.25 43.26 43.24 43.24 43.31 43.44 43.54 43.65 43.76 43.78 43.71 43.6 
-9999 -9999 -9999 -9999 -9999 -9999 -9999 -9999 -9999 -9999 -9999 -9999 -9999 -9999 -9999 -9999 -9999 -9999 -9999 -9999 -9999 -9999 -9999 -9999 -9999 -9999 -9999 -9999 -9999 -9999 -9999 -9999 -9999 -9999 -9999 -9999 -9999 -9999 -9999 -9999 -9999 -9999 -9999 -9999 -9999 -9999 -9999 -9999 -9999 -9999 -9999 -9999 -9999 -9999 -9999 -9999 -9999 -9999 43.14 43.19 43.21 43.23 43.23 43.2 43.2 43.2 43.23 43.26 43.34 43.48 43.63 43.77 43.89 44.03 44.04 43.87 
-9999 -9999 -9999 -9999 -9999 -9999 -9999 -9999 -9999 -9999 -9999 -9999 -9999 -9999 -9999 -9999 -9999 -9999 -9999 -9999 -9999 -9999 -9999 -9999 -9999 -9999 -9999 -9999 -9999 -9999 -9999 -9999 -9999 -9999 -9999 -9999 -9999 -9999 -9999 -9999 -9999 -9999 -9999 -9999 -9999 -9999 -9999 -9999 -9999 -9999 -9999 -9999 -9999 -9999 -9999 -9999 -9999 43.12 43.18 43.2 43.22 43.23 43.25 43.24 43.18 43.15 43.2 43.26 43.34 43.53 43.7 43.87 44.1 44.28 44.31 44.18 
-9999 -9999 -9999 -9999 -9999 -9999 -9999 -9999 -9999 -9999 -9999 -9999 -9999 -9999 -9999 -9999 -9999 -9999 -9999 -9999 -9999 -9999 -9999 -9999 -9999 -9999 -9999 -9999 -9999 -9999 -9999 -9999 -9999 -9999 -9999 -9999 43.03 42.97 -9999 -9999 -9999 -9999 -9999 -9999 -9999 -9999 -9999 -9999 -9999 -9999 -9999 -9999 -9999 -9999 -9999 -9999 -9999 43.18 43.28 43.33 43.34 43.34 43.33 43.25 43.23 43.19 43.21 43.35 43.46 43.66 43.89 44.11 44.3 44.45 44.52 44.47 
-9999 -9999 -9999 -9999 -9999 -9999 -9999 -9999 -9999 -9999 -9999 -9999 -9999 -9999 -9999 -9999 -9999 -9999 -9999 -9999 -9999 -9999 -9999 -9999 -9999 -9999 -9999 -9999 -9999 -9999 -9999 -9999 -9999 -9999 43.24 43.11 43.01 43.03 -9999 -9999 -9999 -9999 -9999 -9999 -9999 -9999 -9999 -9999 -9999 -9999 -9999 -9999 -9999 -9999 -9999 -9999 -9999 43.31 43.4 43.38 43.35 43.38 43.32 43.26 43.23 43.24 43.29 43.37 43.53 43.73 43.95 44.17 44.36 44.58 44.73 44.72 
-9999 -9999 -9999 -9999 -9999 -9999 -9999 -9999 -9999 -9999 -9999 -9999 -9999 -9999 -9999 -9999 -9999 -9999 -9999 -9999 -9999 -9999 -9999 -9999 -9999 -9999 -9999 -9999 -9999 -9999 -9999 43.17 43.17 43.15 43.13 43.08 42.88 42.85 -9999 -9999 -9999 -9999 -9999 -9999 -9999 -9999 -9999 -9999 -9999 -9999 -9999 -9999 -9999 -9999 -9999 -9999 -9999 43.43 43.48 43.5 43.47 43.47 43.43 43.37 43.28 43.24 43.28 43.32 43.47 43.66 43.89 44.15 44.39 44.62 44.84 44.88 
-9999 -9999 -9999 -9999 -9999 -9999 -9999 -9999 -9999 -9999 -9999 -9999 -9999 -9999 -9999 -9999 -9999 -9999 -9999 -9999 -9999 -9999 -9999 -9999 -9999 -9999 -9999 43.21 43.15 43.12 43.12 43.13 43.13 43.11 43.05 42.97 42.86 -9999 -9999 -9999 -9999 -9999 -9999 -9999 -9999 -9999 -9999 -9999 -9999 -9999 -9999 -9999 -9999 -9999 -9999 -9999 43.48 43.51 43.57 43.6 43.57 43.55 43.48 43.4 43.41 43.34 43.33 43.31 43.44 43.6 43.76 44.08 44.39 44.63 44.87 44.9 
-9999 -9999 -9999 -9999 -9999 -9999 -9999 -9999 -9999 -9999 -9999 -9999 -9999 -9999 -9999 -9999 -9999 -9999 -9999 -9999 -9999 -9999 -9999 43.72 43.69 43.5 43.35 43.3 43.2 43.21 43.12 43.11 43.07 43.02 42.98 42.91 42.84 -9999 -9999 -9999 -9999 -9999 -9999 -9999 -9999 -9999 -9999 -9999 -9999 -9999 -9999 -9999 -9999 -9999 -9999 -9999 43.48 43.56 43.57 43.59 43.62 43.57 43.55 43.52 43.48 43.43 43.36 43.33 43.38 43.51 43.66 43.98 44.29 44.55 44.89 44.94 
-9999 -9999 -9999 -9999 -9999 -9999 -9999 -9999 -9999 -9999 -9999 -9999 -9999 -9999 -9999 -9999 -9999 -9999 -9999 -9999 -9999 43.66 43.71 43.72 43.66 43.51 43.38 43.29 43.23 43.2 43.14 43.14 43.05 43.03 42.95 42.88 42.81 -9999 -9999 -9999 -9999 -9999 -9999 -9999 -9999 -9999 -9999 -9999 -9999 -9999 -9999 -9999 -9999 -9999 -9999 -9999 43.46 43.55 43.6 43.62 43.64 43.64 43.61 43.54 43.48 43.41 43.35 43.34 43.34 43.43 43.62 43.9 44.15 44.48 44.8 44.95 
-9999 -9999 -9999 -9999 -9999 -9999 -9999 -9999 -9999 -9999 -9999 -9999 -9999 -9999 -9999 -9999 -9999 -9999 -9999 43.33 43.47 43.6 43.65 43.76 43.77 43.73 43.63 43.55 43.44 43.35 43.28 43.22 43.13 43.09 43.02 42.89 42.82 -9999 -9999 -9999 -9999 -9999 -9999 -9999 -9999 -9999 -9999 -9999 -9999 -9999 -9999 -9999 -9999 -9999 -9999 43.45 43.45 43.53 43.6 43.63 43.62 43.63 43.6 43.57 43.51 43.46 43.4 43.34 43.31 43.35 43.55 43.8 44.11 44.39 44.79 44.95 
-9999 -9999 -9999 -9999 -9999 -9999 -9999 -9999 -9999 -9999 -9999 -9999 -9999 -9999 -9999 -9999 -9999 -9999 43.4 43.42 43.52 43.64 43.69 43.72 43.75 43.74 43.65 43.6 43.53 43.43 43.36 43.27 43.22 43.13 43.05 42.98 42.91 -9999 -9999 -9999 -9999 -9999 -9999 -9999 -9999 -9999 -9999 -9999 -9999 -9999 -9999 -9999 -9999 43.22 43.34 43.35 43.43 43.53 43.6 43.63 43.69 43.67 43.58 43.51 43.47 43.38 43.3 43.24 43.22 43.28 43.41 43.68 44 44.42 44.82 44.99 
-9999 -9999 -9999 -9999 -9999 -9999 -9999 -9999 -9999 -9999 -9999 -9999 -9999 -9999 -9999 -9999 -9999 -9999 43.67 43.61 43.63 43.66 43.72 43.73 43.75 43.76 43.73 43.66 43.61 43.57 43.47 43.36 43.32 43.23 43.13 43.01 42.97 -9999 -9999 -9999 -9999 -9999 -9999 -9999 -9999 -9999 -9999 -9999 -9999 -9999 -9999 -9999 43.11 43.14 43.18 43.34 43.46 43.53 43.63 43.67 43.68 43.62 43.56 43.45 43.37 43.31 43.23 43.2 43.22 43.27 43.4 43.66 43.99 44.45 44.79 44.93 
-9999 -9999 -9999 -9999 -9999 -9999 -9999 -9999 -9999 -9999 -9999 -9999 -9999 -9999 -9999 -9999 -9999 44 43.84 43.74 43.67 43.65 43.67 43.7 43.75 43.74 43.77 43.75 43.71 43.67 43.6 43.49 43.42 43.37 43.24 43.13 43.03 43.06 43.05 43.05 -9999 -9999 -9999 -9999 -9999 -9999 -9999 -9999 -9999 -9999 43.08 43.01 43.01 43.08 43.19 43.33 43.46 43.57 43.7 43.79 43.81 43.77 43.71 43.6 43.47 43.4 43.34 43.36 43.36 43.4 43.62 43.86 44.2 44.58 44.85 44.89 
-9999 -9999 -9999 -9999 -9999 -9999 -9999 -9999 -9999 -9999 -9999 -9999 -9999 -9999 -9999 -9999 44.23 44.05 43.91 43.81 43.71 43.67 43.62 43.67 43.73 43.78 43.83 43.84 43.84 43.79 43.69 43.62 43.52 43.44 43.33 43.22 43.2 43.16 43.09 43.11 43.13 43.11 43.07 43.08 43.09 43.11 43.04 42.96 42.99 43.08 43.05 42.98 43.02 43.08 43.2 43.34 43.51 43.68 43.83 43.93 43.95 43.91 43.81 43.71 43.64 43.59 43.6 43.61 43.62 43.69 43.92 44.13 44.44 44.74 44.97 44.91 
-9999 -9999 -9999 -9999 -9999 -9999 -9999 -9999 -9999 -9999 -9999 -9999 -9999 -9999 44.47 44.37 44.23 44.09 44.01 43.9 43.77 43.64 43.61 43.56 43.62 43.63 43.64 43.67 43.7 43.71 43.69 43.63 43.5 43.4 43.31 43.2 43.18 43.14 43.12 43.12 43.12 43.14 43.12 43.12 43.06 43.01 43.05 43.02 43.03 43.09 43.08 43.06 43.06 43.15 43.3 43.47 43.68 43.88 44.04 44.17 44.23 44.22 44.18 44.14 44.07 44.02 43.96 43.93 43.97 44.04 44.24 44.46 44.68 44.89 45.1 44.97 
-9999 -9999 -9999 -9999 -9999 -9999 -9999 -9999 -9999 -9999 -9999 -9999 -9999 44.49 44.37 44.25 44.15 44.08 44.02 43.88 43.75 43.65 43.59 43.55 43.6 43.65 43.67 43.67 43.66 43.62 43.6 43.53 43.45 43.38 43.27 43.26 43.22 43.2 43.21 43.25 43.22 43.18 43.13 43.1 43.04 43.02 43.08 43.05 43.01 43.07 43.05 43.04 43.1 43.22 43.45 43.68 43.89 44.13 44.32 44.47 44.55 44.57 44.57 44.53 44.48 44.37 44.38 44.37 44.39 44.49 44.57 44.75 44.86 44.99 45.13 44.94 
-9999 -9999 -9999 -9999 -9999 -9999 -9999 -9999 -9999 -9999 -9999 -9999 44.52 44.4 44.37 44.27 44.22 44.16 44.09 43.96 43.86 43.78 43.7 43.71 43.76 43.8 43.83 43.85 43.81 43.75 43.71 43.65 43.61 43.55 43.51 43.42 43.37 43.36 43.34 43.34 43.38 43.33 43.33 43.34 43.32 43.3 43.28 43.18 43.13 43.11 43.12 43.17 43.27 43.43 43.71 43.98 44.22 44.48 44.69 44.84 44.96 45.02 45.06 45.02 44.96 44.96 44.91 44.91 44.92 44.92 44.94 45.04 45.1 45.13 45.22 44.9 
-9999 -9999 -9999 -9999 -9999 -9999 -9999 -9999 -9999 -9999 -9999 44.41 44.29 44.21 44.14 44.04 44.03 44.06 44.04 43.99 43.91 43.84 43.8 43.8 43.82 43.91 43.99 44 43.92 43.87 43.87 43.81 43.78 43.71 43.68 43.64 43.57 43.6 43.61 43.69 43.75 43.71 43.66 43.64 43.6 43.56 43.49 43.51 43.45 43.48 43.57 43.62 43.74 43.93 44.17 44.39 44.63 44.91 45.14 45.28 45.43 45.49 45.51 45.54 45.51 45.47 45.44 45.44 45.41 45.37 45.36 45.36 45.31 45.24 45.23 44.88 
-9999 -9999 -9999 -9999 -9999 -9999 -9999 -9999 -9999 -9999 -9999 44.19 44.19 44.2 44.16 44.12 44.11 44.12 44.11 44.09 44.02 43.94 43.9 43.93 43.93 44.02 44.09 44.07 44.04 43.98 43.93 43.89 43.83 43.78 43.78 43.76 43.76 43.77 43.77 43.71 43.75 43.76 43.74 43.74 43.67 43.68 43.67 43.7 43.7 43.72 43.8 43.9 44.05 44.26 44.49 44.78 45.02 45.32 45.57 45.77 45.95 46.02 46.08 46.12 46.05 45.98 45.95 45.88 45.84 45.78 45.72 45.62 45.51 45.37 45.2 44.81 
-9999 -9999 -9999 -9999 -9999 -9999 -9999 -9999 -9999 -9999 43.96 43.96 44 44.04 44.08 44.15 44.18 44.19 44.21 44.15 44.1 44.05 44.02 44.05 44.04 44.09 44.09 44.07 44.05 44.02 43.99 43.96 43.93 43.89 43.89 43.93 43.92 44.01 44.03 44.06 44.05 44.02 43.96 43.9 43.81 43.84 43.85 43.89 43.96 44.1 44.2 44.4 44.55 44.8 45.03 45.34 45.57 45.81 46.08 46.28 46.41 46.47 46.47 46.44 46.35 46.31 46.31 46.23 46.17 46.1 45.96 45.82 45.58 45.37 45.15 44.76 
-9999 -9999 -9999 -9999 -9999 -9999 -9999 -9999 -9999 -9999 43.71 43.72 43.78 43.95 44.06 44.15 44.28 44.34 44.31 44.27 44.21 44.16 44.14 44.12 44.11 44.16 44.17 44.17 44.13 44.06 44.06 44.04 44.03 44.03 44.08 44.12 44.15 44.25 44.31 44.33 44.31 44.22 44.23 44.15 44.11 44.07 44.11 44.18 44.33 44.5 44.67 44.85 45.07 45.29 45.59 45.92 46.18 46.38 46.61 46.79 46.87 46.89 46.85 46.72 46.57 46.46 46.44 46.37 46.29 46.2 46.03 45.85 45.61 45.32 45.11 44.68 
-9999 -9999 -9999 -9999 -9999 -9999 -9999 -9999 -9999 43.42 43.47 43.52 43.62 43.82 44.03 44.27 44.4 44.43 44.37 44.33 44.28 44.23 44.19 44.18 44.24 44.24 44.29 44.28 44.26 44.22 44.2 44.2 44.16 44.19 44.25 44.32 44.4 44.47 44.59 44.6 44.59 44.52 44.52 44.47 44.41 44.36 44.41 44.51 44.67 44.83 45.07 45.31 45.51 45.79 46.08 46.34 46.61 46.79 46.97 47.16 47.24 47.24 47.08 46.91 46.73 46.53 46.44 46.31 46.22 46.14 45.96 45.81 45.56 45.31 45.02 44.61 
-9999 -9999 -9999 -9999 -9999 -9999 -9999 -9999 -9999 43.19 43.22 43.28 43.48 43.72 43.95 44.18 44.3 44.3 44.33 44.33 44.34 44.34 44.3 44.29 44.3 44.27 44.32 44.32 44.37 44.3 44.29 44.33 44.35 44.37 44.44 44.51 44.63 44.72 44.79 44.79 44.8 44.77 44.79 44.78 44.76 44.72 44.76 44.84 44.98 45.19 45.44 45.68 45.88 46.12 46.45 46.71 46.89 47.02 47.18 47.27 47.34 47.32 47.19 47.02 46.8 46.66 46.51 46.36 46.23 46.07 45.9 45.67 45.46 45.17 44.87 44.45 
-9999 -9999 -9999 -9999 -9999 -9999 -9999 -9999 -9999 43.03 43.05 43.14 43.26 43.49 43.75 43.91 44.12 44.24 44.33 44.4 44.43 44.45 44.41 44.36 44.37 44.37 44.44 44.45 44.47 44.46 44.46 44.49 44.55 44.6 44.68 44.75 44.83 44.95 45.04 45.07 45.1 45.08 45.09 45.15 45.16 45.13 45.12 45.19 45.34 45.58 45.86 46.1 46.32 46.56 46.79 46.98 47.12 47.18 47.26 47.34 47.32 47.27 47.14 46.98 46.8 46.67 46.53 46.4 46.25 46.07 45.91 45.69 45.38 45.1 44.84 44.44 
-9999 -9999 -9999 -9999 -9999 -9999 -9999 -9999 -9999 42.89 42.94 43.04 43.16 43.36 43.52 43.72 43.94 44.13 44.27 44.4 44.46 44.49 44.46 44.42 44.39 44.38 44.4 44.44 44.48 44.5 44.55 44.58 44.66 44.76 44.85 44.89 44.97 45.05 45.15 45.2 45.27 45.35 45.43 45.48 45.55 45.57 45.51 45.52 45.68 45.9 46.12 46.32 46.56 46.73 46.91 47.08 47.2 47.26 47.3 47.33 47.29 47.2 47.06 46.93 46.77 46.6 46.41 46.28 46.14 46.01 45.83 45.65 45.39 45.1 44.84 44.42 
-9999 -9999 -9999 -9999 -9999 -9999 -9999 -9999 -9999 42.81 42.88 42.95 43.06 43.23 43.37 43.52 43.71 43.94 44.13 44.29 44.35 44.42 44.43 44.39 44.37 44.36 44.37 44.4 44.42 44.49 44.57 44.67 44.77 44.87 44.94 45.04 45.1 45.21 45.32 45.39 45.49 45.6 45.71 45.81 45.91 45.94 45.9 45.93 46.02 46.15 46.33 46.52 46.68 46.8 46.97 47.1 47.19 47.21 47.21 47.2 47.14 47.03 46.89 46.71 46.54 46.4 46.23 46.07 45.94 45.84 45.7 45.54 45.29 45.01 44.75 44.37 
-9999 -9999 -9999 -9999 -9999 -9999 -9999 -9999 -9999 42.81 42.85 42.92 43.02 43.15 43.28 43.42 43.57 43.78 43.97 44.1 44.19 44.27 44.29 44.33 44.33 44.34 44.36 44.38 44.42 44.48 44.59 44.71 44.83 44.95 45.06 45.15 45.25 45.38 45.5 45.59 45.68 45.77 45.89 46.02 46.12 46.19 46.19 46.21 46.27 46.33 46.45 46.59 46.67 46.74 46.85 46.97 47.04 47.04 47.03 46.99 46.91 46.79 46.62 46.42 46.31 46.21 46.07 45.92 45.81 45.66 45.55 45.42 45.16 44.93 44.7 44.37 
-9999 -9999 -9999 -9999 -9999 -9999 -9999 -9999 -9999 42.78 42.81 42.86 42.96 43.08 43.22 43.33 43.46 43.64 43.8 43.94 44.05 44.13 44.17 44.2 44.18 44.2 44.22 44.26 44.35 44.45 44.59 44.73 44.86 45.01 45.13 45.26 45.38 45.5 45.61 45.7 45.81 45.91 46 46.13 46.21 46.25 46.3 46.31 46.34 46.38 46.42 46.5 46.59 46.68 46.75 46.83 46.87 46.86 46.83 46.78 46.7 46.58 46.4 46.25 46.09 46.02 45.91 45.81 45.72 45.58 45.44 45.25 45.08 44.85 44.67 44.3 
-9999 -9999 -9999 -9999 -9999 -9999 -9999 42.62 42.66 42.65 42.72 42.8 42.91 43.04 43.21 43.38 43.54 43.62 43.71 43.82 43.93 44.01 44.04 44.08 44.11 44.17 44.25 44.33 44.4 44.46 44.59 44.73 44.89 45.06 45.22 45.39 45.52 45.64 45.8 45.92 46.02 46.09 46.13 46.17 46.23 46.25 46.29 46.31 46.35 46.42 46.47 46.52 46.61 46.65 46.74 46.79 46.85 46.82 46.77 46.7 46.64 46.48 46.31 46.17 46.05 45.96 45.88 45.78 45.68 45.54 45.38 45.21 45.05 44.85 44.64 44.24 
-9999 -9999 -9999 -9999 -9999 42.47 42.56 42.62 42.6 42.56 42.6 42.68 42.81 42.95 43.1 43.22 43.33 43.44 43.55 43.64 43.75 43.78 43.85 43.93 43.98 44.03 44.11 44.18 44.27 44.37 44.5 44.69 44.86 45.07 45.26 45.48 45.64 45.8 45.97 46.09 46.15 46.17 46.17 46.18 46.19 46.21 46.2 46.23 46.32 46.4 46.5 46.59 46.64 46.75 46.82 46.82 46.86 46.79 46.75 46.66 46.55 46.41 46.23 46.13 46.02 45.9 45.86 45.76 45.66 45.53 45.39 45.25 45.05 44.81 44.69 44.26 
-9999 -9999 -9999 -9999 42.47 42.53 42.59 42.59 42.52 42.51 42.49 42.56 42.68 42.81 42.98 43.11 43.21 43.27 43.34 43.42 43.53 43.57 43.66 43.75 43.81 43.92 43.98 44.07 44.18 44.31 44.45 44.62 44.83 45.06 45.33 45.57 45.81 45.95 46.09 46.14 46.18 46.14 46.12 46.12 46.17 46.16 46.19 46.25 46.35 46.37 46.43 46.52 46.62 46.71 46.79 46.81 46.82 46.76 46.7 46.58 46.44 46.34 46.21 46.04 45.88 45.82 45.82 45.68 45.64 45.51 45.35 45.19 45.02 44.79 44.74 44.33 
-9999 -9999 -9999 42.6 42.52 42.52 42.54 42.49 42.46 42.48 42.49 42.53 42.59 42.72 42.86 42.94 43.06 43.16 43.21 43.28 43.4 43.44 43.51 43.56 43.67 43.83 43.9 44.02 44.15 44.32 44.51 44.7 44.9 45.15 45.43 45.67 45.88 46.01 46.08 46.14 46.17 46.2 46.24 46.21 46.23 46.23 46.28 46.36 46.45 46.52 46.6 46.73 46.81 46.88 46.89 46.92 46.86 46.83 46.73 46.58 46.47 46.31 46.22 46.07 45.99 45.9 45.91 45.71 45.6 45.5 45.36 45.21 45.03 44.85 44.79 44.44 
-9999 -9999 -9999 42.64 42.57 42.51 42.5 42.43 42.44 42.46 42.5 42.55 42.61 42.72 42.83 42.9 43.02 43.07 43.13 43.19 43.25 43.32 43.41 43.47 43.56 43.69 43.87 44.05 44.19 44.37 44.6 44.84 45.06 45.33 45.59 45.81 45.93 46.08 46.14 46.18 46.23 46.26 46.33 46.36 46.4 46.5 46.53 46.61 46.67 46.73 46.82 46.91 47 47.02 47.12 47.09 47 46.91 46.81 46.7 46.59 46.41 46.24 46.17 46.03 45.97 45.84 45.72 45.62 45.55 45.44 45.35 45.15 44.99 44.95 44.63 
-9999 -9999 42.72 42.69 42.63 42.56 42.48 42.44 42.44 42.46 42.48 42.53 42.62 42.73 42.82 42.88 42.92 42.98 43.08 43.1 43.15 43.23 43.32 43.45 43.57 43.68 43.9 44.13 44.37 44.57 44.78 45.01 45.25 45.48 45.73 45.91 46.02 46.1 46.21 46.28 46.39 46.47 46.52 46.61 46.71 46.81 46.89 46.97 47.05 47.13 47.18 47.25 47.32 47.35 47.35 47.3 47.24 47.1 47 46.84 46.7 46.52 46.35 46.23 46.14 46.02 45.91 45.79 45.7 45.6 45.5 45.43 45.29 45.11 45.03 44.77 
-9999 42.86 42.86 42.83 42.8 42.65 42.54 42.47 42.47 42.49 42.53 42.62 42.69 42.75 42.89 42.93 42.97 42.99 42.97 43.04 43.07 43.17 43.28 43.41 43.54 43.77 43.99 44.19 44.55 44.7 44.91 45.12 45.36 45.57 45.76 45.9 45.99 46 46.08 46.23 46.39 46.6 46.74 46.82 46.97 47.03 47.13 47.22 47.29 47.37 47.4 47.44 47.49 47.55 47.54 47.52 47.41 47.27 47.14 46.98 46.8 46.65 46.41 46.27 46.18 46.04 45.92 45.86 45.8 45.73 45.63 45.57 45.49 45.35 45.25 44.98 
-9999 42.76 42.81 42.85 42.82 42.68 42.6 42.55 42.55 42.57 42.58 42.62 42.62 42.68 42.73 42.78 42.88 42.92 42.94 43.01 43.06 43.16 43.26 43.47 43.67 43.84 44.07 44.33 44.56 44.84 45.06 45.27 45.46 45.63 45.77 45.86 45.93 46.01 46.13 46.28 46.46 46.66 46.82 46.92 47.07 47.24 47.35 47.47 47.53 47.54 47.55 47.54 47.57 47.59 47.59 47.54 47.45 47.32 47.18 47.05 46.88 46.77 46.62 46.48 46.3 46.15 46.06 45.96 45.87 45.79 45.75 45.75 45.66 45.57 45.45 45.21 
42.54 42.69 42.79 42.79 42.72 42.67 42.65 42.66 42.63 42.62 42.58 42.59 42.58 42.62 42.66 42.72 42.81 42.88 42.92 42.94 43.05 43.15 43.27 43.52 43.76 43.95 44.19 44.42 44.68 44.94 45.14 45.37 45.55 45.64 45.73 45.82 45.92 46.01 46.14 46.3 46.5 46.72 46.9 47.05 47.22 47.41 47.57 47.66 47.69 47.7 47.65 47.61 47.61 47.6 47.57 47.52 47.44 47.33 47.22 47.1 47 46.88 46.75 46.58 46.41 46.23 46.09 46 45.93 45.92 45.94 45.91 45.85 45.77 45.66 45.47 
42.48 42.61 42.71 42.74 42.66 42.66 42.67 42.69 42.69 42.68 42.65 42.61 42.57 42.54 42.61 42.7 42.77 42.82 42.85 42.9 43 43.14 43.32 43.51 43.76 43.99 44.23 44.43 44.68 44.94 45.17 45.38 45.53 45.63 45.71 45.76 45.84 45.95 46.05 46.23 46.46 46.7 46.92 47.1 47.27 47.43 47.56 47.66 47.67 47.64 47.6 47.56 47.55 47.56 47.54 47.49 47.41 47.34 47.18 47.06 46.98 46.87 46.75 46.6 46.45 46.33 46.21 46.15 46.12 46.15 46.2 46.23 46.21 46.03 45.93 45.74 
42.45 42.55 42.57 42.6 42.62 42.63 42.64 42.67 42.67 42.67 42.64 42.61 42.58 42.58 42.64 42.67 42.72 42.76 42.82 42.87 42.95 43.09 43.3 43.53 43.78 44.05 44.3 44.5 44.7 44.93 45.14 45.31 45.46 45.55 45.67 45.73 45.8 45.93 46.1 46.35 46.62 46.87 47.08 47.23 47.36 47.5 47.58 47.59 47.6 47.59 47.57 47.54 47.54 47.54 47.52 47.46 47.4 47.29 47.12 47.01 46.9 46.79 46.64 46.5 46.44 46.35 46.28 46.32 46.3 46.38 46.42 46.45 46.4 46.27 46.18 46.09 
-9999 -9999 42.34 42.34 42.36 42.44 42.53 42.6 42.62 42.63 42.57 42.56 42.54 42.55 42.6 42.67 42.74 42.77 42.8 42.84 42.93 43.08 43.31 43.52 43.76 43.99 44.22 44.42 44.63 44.83 45.04 45.19 45.34 45.44 45.57 45.68 45.77 45.91 46.15 46.42 46.71 46.99 47.22 47.38 47.51 47.59 47.61 47.63 47.58 47.54 47.53 47.51 47.51 47.5 47.52 47.49 47.41 47.28 47.14 46.99 46.86 46.74 46.6 46.51 46.49 46.47 46.43 46.43 46.47 46.53 46.56 46.65 46.57 46.46 46.48 46.42 
-9999 -9999 -9999 -9999 -9999 -9999 -9999 -9999 42.63 42.68 42.7 42.63 42.62 42.6 42.66 42.71 42.75 42.82 42.84 42.86 42.96 43.13 43.37 43.58 43.79 44 44.2 44.39 44.58 44.74 44.9 45.04 45.2 45.37 45.49 45.66 45.83 46.05 46.31 46.59 46.9 47.18 47.4 47.52 47.62 47.66 47.68 47.66 47.62 47.57 47.5 47.48 47.49 47.49 47.49 47.44 47.34 47.24 47.08 46.94 46.79 46.65 46.55 46.5 46.4 46.43 46.47 46.47 46.48 46.57 46.66 46.78 46.74 46.68 46.71 46.61 
-9999 -9999 -9999 -9999 -9999 -9999 -9999 -9999 42.52 42.64 42.69 42.72 42.7 42.7 42.76 42.81 42.88 42.95 43.02 43.06 43.14 43.28 43.47 43.65 43.83 43.99 44.16 44.36 44.5 44.65 44.83 44.98 45.17 45.37 45.53 45.74 45.99 46.26 46.46 46.78 47.06 47.28 47.52 47.63 47.69 47.73 47.7 47.67 47.59 47.51 47.5 47.42 47.46 47.41 47.4 47.38 47.31 47.16 47.01 46.89 46.73 46.6 46.57 46.5 46.51 46.49 46.51 46.53 46.59 46.63 46.72 46.83 46.89 46.88 46.88 46.72 
-9999 -9999 -9999 -9999 -9999 -9999 -9999 -9999 -9999 42.58 42.66 42.77 42.82 42.89 42.9 42.93 43.01 43.05 43.11 43.17 43.29 43.41 43.59 43.78 43.91 44.03 44.22 44.4 44.46 44.57 44.76 44.94 45.09 45.33 45.55 45.82 46.13 46.43 46.74 47.05 47.31 47.5 47.66 47.7 47.71 47.71 47.67 47.6 47.47 47.39 47.34 47.27 47.26 47.25 47.26 47.25 47.15 47.05 46.9 46.75 46.61 46.48 46.43 46.37 46.42 46.5 46.53 46.55 46.64 46.73 46.76 46.86 46.95 47.02 46.95 46.8 
-9999 -9999 -9999 -9999 -9999 -9999 -9999 -9999 42.47 42.65 42.74 42.89 42.94 42.96 42.98 43.03 43.11 43.16 43.24 43.35 43.49 43.61 43.77 43.89 44.01 44.12 44.26 44.35 44.45 44.58 44.75 44.9 45.14 45.36 45.66 45.97 46.33 46.7 47.01 47.32 47.52 47.67 47.79 47.83 47.78 47.71 47.66 47.53 47.41 47.33 47.27 47.2 47.22 47.21 47.18 47.14 47.12 46.96 46.84 46.71 46.64 46.55 46.51 46.5 46.53 46.6 46.68 46.77 46.79 46.85 46.88 46.98 47.05 47.11 46.99 46.8 
-9999 -9999 -9999 -9999 -9999 -9999 -9999 -9999 42.63 42.83 42.92 43.03 43.05 43.07 43.12 43.2 43.26 43.34 43.42 43.53 43.62 43.74 43.87 43.96 44.12 44.24 44.35 44.45 44.57 44.67 44.84 45.02 45.24 45.55 45.86 46.2 46.56 46.94 47.22 47.49 47.67 47.8 47.86 47.91 47.83 47.69 47.61 47.51 47.4 47.33 47.26 47.23 47.23 47.22 47.17 47.12 47.06 46.97 46.86 46.75 46.7 46.65 46.64 46.63 46.69 46.77 46.81 46.9 46.88 46.95 47.01 47.1 47.14 47.18 47.05 46.83 
-9999 -9999 -9999 -9999 -9999 -9999 -9999 -9999 42.82 42.92 43.04 43.06 43.09 43.14 43.18 43.27 43.32 43.43 43.54 43.61 43.72 43.85 43.96 44.09 44.21 44.34 44.47 44.6 44.74 44.89 44.99 45.2 45.44 45.69 46.02 46.37 46.71 47.07 47.32 47.49 47.65 47.73 47.77 47.79 47.71 47.61 47.49 47.44 47.32 47.25 47.21 47.09 47.02 46.99 46.95 46.9 46.86 46.82 46.75 46.7 46.62 46.61 46.66 46.7 46.78 46.89 46.95 47.01 47.04 47.08 47.11 47.16 47.2 47.21 47.11 46.92 
-9999 -9999 -9999 -9999 -9999 -9999 -9999 42.84 42.89 42.99 43.05 43.1 43.17 43.24 43.25 43.38 43.45 43.49 43.62 43.73 43.85 43.96 44.11 44.27 44.39 44.5 44.64 44.75 44.9 45.02 45.19 45.4 45.63 45.88 46.19 46.49 46.82 47.12 47.35 47.47 47.56 47.63 47.66 47.64 47.58 47.5 47.37 47.28 47.17 47.12 47.03 46.98 46.9 46.86 46.82 46.75 46.71 46.67 46.63 46.63 46.61 46.68 46.75 46.85 46.97 47.08 47.12 47.19 47.22 47.21 47.22 47.25 47.28 47.27 47.19 47.09 
-9999 -9999 -9999 -9999 -9999 -9999 42.8 42.94 43 43.04 43.11 43.18 43.23 43.29 43.42 43.48 43.6 43.76 43.82 43.93 44.07 44.2 44.33 44.48 44.6 44.69 44.84 44.97 45.12 45.28 45.44 45.65 45.88 46.12 46.4 46.64 46.9 47.11 47.27 47.39 47.46 47.53 47.55 47.53 47.49 47.36 47.26 47.17 47.06 46.95 46.9 46.87 46.81 46.78 46.73 46.66 46.59 46.55 46.51 46.5 46.53 46.58 46.66 46.82 46.93 47.04 47.15 47.26 47.31 47.32 47.36 47.38 47.38 47.36 47.32 47.29 
-9999 -9999 -9999 -9999 -9999 -9999 42.9 43.01 43.03 43.1 43.17 43.23 43.28 43.36 43.48 43.6 43.7 43.82 43.98 44.09 44.25 44.4 44.54 44.69 44.82 44.96 45.13 45.3 45.42 45.57 45.72 45.88 46.09 46.3 46.52 46.72 46.9 47.09 47.16 47.25 47.29 47.32 47.38 47.39 47.34 47.21 47.14 47.04 46.91 46.83 46.73 46.63 46.6 46.58 46.53 46.48 46.42 46.41 46.39 46.44 46.52 46.58 46.69 46.83 46.99 47.16 47.26 47.39 47.45 47.5 47.57 47.6 47.63 47.57 47.56 47.56 
-9999 -9999 -9999 -9999 -9999 42.86 42.95 43.03 43.08 43.2 43.27 43.33 43.42 43.53 43.64 43.73 43.88 43.99 44.15 44.3 44.44 44.6 44.73 44.88 45.03 45.15 45.33 45.5 45.68 45.83 45.97 46.13 46.28 46.48 46.71 46.82 46.94 47.04 47.13 47.16 47.22 47.28 47.3 47.28 47.22 47.13 47.06 46.98 46.86 46.81 46.74 46.67 46.61 46.55 46.49 46.44 46.4 46.37 46.41 46.46 46.56 46.64 46.73 46.86 47.01 47.18 47.34 47.46 47.58 47.69 47.8 47.87 47.9 47.89 47.89 47.91 
-9999 -9999 -9999 -9999 42.78 42.9 43.04 43.11 43.23 43.34 43.41 43.48 43.57 43.69 43.84 43.97 44.11 44.25 44.4 44.54 44.64 44.78 44.94 45.07 45.25 45.44 45.62 45.82 45.99 46.14 46.28 46.39 46.52 46.68 46.84 46.94 47.01 47.01 47.06 47.09 47.13 47.16 47.16 47.16 47.12 47.04 46.96 46.85 46.76 46.69 46.62 46.56 46.5 46.44 46.37 46.33 46.3 46.28 46.3 46.35 46.42 46.57 46.68 46.8 46.95 47.12 47.33 47.52 47.68 47.85 47.98 48.1 48.18 48.23 48.24 48.28 
-9999 -9999 -9999 -9999 42.81 42.93 43.05 43.2 43.31 43.42 43.53 43.64 43.78 43.89 44.04 44.19 44.36 44.5 44.62 44.77 44.88 44.98 45.11 45.25 45.44 45.62 45.83 46.04 46.19 46.33 46.47 46.6 46.7 46.79 46.85 46.9 46.88 46.86 46.85 46.87 46.88 46.89 46.92 46.92 46.91 46.82 46.73 46.65 46.55 46.46 46.37 46.3 46.25 46.18 46.15 46.13 46.12 46.16 46.19 46.28 46.36 46.48 46.64 46.79 47 47.2 47.41 47.64 47.83 48.04 48.19 48.34 48.44 48.58 48.59 48.57 
-9999 -9999 -9999 42.75 42.82 42.92 43.16 43.38 43.55 43.69 43.83 44 44.09 44.22 44.39 44.55 44.7 44.85 44.94 45.04 45.16 45.25 45.35 45.52 45.69 45.89 46.07 46.21 46.35 46.48 46.56 46.65 46.71 46.74 46.76 46.73 46.73 46.66 46.63 46.62 46.61 46.64 46.65 46.63 46.61 46.57 46.49 46.4 46.33 46.25 46.16 46.16 46.05 45.99 45.95 45.91 45.94 46.01 46.06 46.15 46.26 46.36 46.5 46.68 46.87 47.05 47.34 47.64 47.9 48.16 48.37 48.56 48.73 48.86 48.9 48.92 
-9999 -9999 -9999 42.83 42.97 43.15 43.38 43.61 43.79 44 44.15 44.32 44.49 44.62 44.78 44.96 45.12 45.24 45.34 45.43 45.52 45.62 45.71 45.84 46 46.18 46.34 46.48 46.58 46.65 46.72 46.74 46.72 46.72 46.69 46.63 46.62 46.58 46.55 46.53 46.52 46.53 46.54 46.5 46.46 46.36 46.29 46.2 46.13 46.01 45.96 45.85 45.76 45.63 45.56 45.62 45.66 45.76 45.86 45.98 46.11 46.24 46.46 46.69 46.87 47.11 47.41 47.68 47.98 48.26 48.52 48.73 48.93 49.04 49.14 49.23 
-9999 -9999 42.83 42.95 43.05 43.32 43.53 43.75 44.03 44.27 44.45 44.64 44.84 45.04 45.19 45.32 45.49 45.64 45.76 45.85 45.89 45.93 46.04 46.16 46.31 46.47 46.61 46.73 46.83 46.91 46.89 46.84 46.76 46.63 46.58 46.48 46.45 46.43 46.38 46.33 46.36 46.37 46.36 46.39 46.34 46.26 46.15 46.09 45.95 45.82 45.73 45.58 45.52 45.44 45.43 45.46 45.49 45.63 45.74 45.85 -9999 -9999 -9999 -9999 -9999 -9999 -9999 -9999 -9999 -9999 -9999 -9999 -9999 -9999 -9999 -9999 
-9999 -9999 42.95 43.12 43.28 43.56 43.81 44.03 44.31 44.53 44.76 44.95 45.14 45.34 45.49 45.66 45.79 45.94 46.06 46.11 46.17 46.2 46.25 46.33 46.42 46.54 46.65 46.69 46.78 46.79 46.8 46.71 46.64 46.46 46.37 46.27 46.25 46.24 46.18 46.24 46.26 46.26 46.3 46.28 46.23 -9999 -9999 -9999 -9999 -9999 -9999 -9999 -9999 -9999 -9999 -9999 -9999 -9999 -9999 -9999 -9999 -9999 -9999 -9999 -9999 -9999 -9999 -9999 -9999 -9999 -9999 -9999 -9999 -9999 -9999 -9999 
-9999 -9999 43.08 43.3 43.56 43.81 44.11 44.34 44.57 44.84 45.04 45.21 45.41 45.61 45.77 45.91 46.06 46.16 46.26 46.35 46.38 46.4 46.41 46.46 46.53 46.65 46.76 46.81 46.9 46.84 46.84 46.73 46.54 46.41 46.24 46.09 46.02 46.02 46 46.02 -9999 -9999 -9999 -9999 -9999 -9999 -9999 -9999 -9999 -9999 -9999 -9999 -9999 -9999 -9999 -9999 -9999 -9999 -9999 -9999 -9999 -9999 -9999 -9999 -9999 -9999 -9999 -9999 -9999 -9999 -9999 -9999 -9999 -9999 -9999 -9999 
-9999 43.22 43.28 43.51 43.76 44.03 44.29 44.57 44.82 45.08 45.3 45.49 45.67 45.91 46.08 46.28 46.4 46.54 46.61 46.62 46.62 46.61 46.59 46.62 46.67 46.73 46.84 46.86 46.87 46.78 46.67 46.59 46.43 46.29 46.12 -9999 -9999 -9999 -9999 -9999 -9999 -9999 -9999 -9999 -9999 -9999 -9999 -9999 -9999 -9999 -9999 -9999 -9999 -9999 -9999 -9999 -9999 -9999 -9999 -9999 -9999 -9999 -9999 -9999 -9999 -9999 -9999 -9999 -9999 -9999 -9999 -9999 -9999 -9999 -9999 -9999 
-9999 43.34 43.54 43.74 43.99 44.27 44.53 44.84 45.11 45.3 45.54 45.75 45.92 46.14 46.3 46.5 46.61 46.66 46.73 46.75 46.77 46.75 46.73 46.74 46.77 46.85 46.94 46.97 46.97 46.89 -9999 -9999 -9999 -9999 -9999 -9999 -9999 -9999 -9999 -9999 -9999 -9999 -9999 -9999 -9999 -9999 -9999 -9999 -9999 -9999 -9999 -9999 -9999 -9999 -9999 -9999 -9999 -9999 -9999 -9999 -9999 -9999 -9999 -9999 -9999 -9999 -9999 -9999 -9999 -9999 -9999 -9999 -9999 -9999 -9999 -9999 
-9999 43.46 43.72 43.93 44.17 44.43 44.7 45.06 45.34 45.59 45.84 46.04 46.22 46.4 46.56 46.73 46.85 46.9 46.94 46.98 46.99 46.97 46.92 46.89 46.9 46.96 -9999 -9999 -9999 -9999 -9999 -9999 -9999 -9999 -9999 -9999 -9999 -9999 -9999 -9999 -9999 -9999 -9999 -9999 -9999 -9999 -9999 -9999 -9999 -9999 -9999 -9999 -9999 -9999 -9999 -9999 -9999 -9999 -9999 -9999 -9999 -9999 -9999 -9999 -9999 -9999 -9999 -9999 -9999 -9999 -9999 -9999 -9999 -9999 -9999 -9999 
-9999 43.58 43.89 44.13 44.41 44.72 45.08 45.38 45.7 45.94 46.17 46.38 -9999 -9999 -9999 -9999 -9999 -9999 -9999 -9999 -9999 -9999 -9999 -9999 -9999 -9999 -9999 -9999 -9999 -9999 -9999 -9999 -9999 -9999 -9999 -9999 -9999 -9999 -9999 -9999 -9999 -9999 -9999 -9999 -9999 -9999 -9999 -9999 -9999 -9999 -9999 -9999 -9999 -9999 -9999 -9999 -9999 -9999 -9999 -9999 -9999 -9999 -9999 -9999 -9999 -9999 -9999 -9999 -9999 -9999 -9999 -9999 -9999 -9999 -9999 -9999 
