ncols        77
nrows        63
xllcorner    851662.500000000000
yllcorner    5836247.500000000000
cellsize     5.000000000000
NODATA_value  -9999
 -9999.0 -9999 -9999 -9999 -9999 -9999 -9999 -9999 -9999 -9999 -9999 -9999 -9999 -9999 -9999 -9999 -9999 -9999 -9999 -9999 -9999 -9999 -9999 -9999 -9999 -9999 -9999 -9999 -9999 -9999 -9999 -9999 -9999 -9999 -9999 -9999 -9999 -9999 -9999 -9999 -9999 -9999 -9999 -9999 -9999 -9999 -9999 -9999 -9999 -9999 -9999 -9999 -9999 -9999 -9999 -9999 -9999 -9999 -9999 -9999 43.159999847412109375 43.159999847412109375 43.1399993896484375 43.119998931884765625 43.15000152587890625 43.1699981689453125 43.18000030517578125 43.1699981689453125 43.1699981689453125 43.20999908447265625 43.220001220703125 43.310001373291015625 43.3899993896484375 43.479999542236328125 43.520000457763671875 43.40000152587890625 43.299999237060546875
 -9999 -9999 -9999 -9999 -9999 -9999 -9999 -9999 -9999 -9999 -9999 -9999 -9999 -9999 -9999 -9999 -9999 -9999 -9999 -9999 -9999 -9999 -9999 -9999 -9999 -9999 -9999 -9999 -9999 -9999 -9999 -9999 -9999 -9999 -9999 -9999 -9999 -9999 -9999 -9999 -9999 -9999 -9999 -9999 -9999 -9999 -9999 -9999 -9999 -9999 -9999 -9999 -9999 -9999 -9999 -9999 -9999 -9999 -9999 43.130001068115234375 43.189998626708984375 43.189998626708984375 43.200000762939453125 43.200000762939453125 43.189998626708984375 43.18000030517578125 43.18000030517578125 43.189998626708984375 43.189998626708984375 43.229999542236328125 43.31999969482421875 43.40000152587890625 43.529998779296875 43.630001068115234375 43.619998931884765625 43.560001373291015625 43.5
 -9999 -9999 -9999 -9999 -9999 -9999 -9999 -9999 -9999 -9999 -9999 -9999 -9999 -9999 -9999 -9999 -9999 -9999 -9999 -9999 -9999 -9999 -9999 -9999 -9999 -9999 -9999 -9999 -9999 -9999 -9999 -9999 -9999 -9999 -9999 -9999 -9999 -9999 -9999 -9999 -9999 -9999 -9999 -9999 -9999 -9999 -9999 -9999 -9999 -9999 -9999 -9999 -9999 -9999 -9999 -9999 -9999 -9999 -9999 43.15000152587890625 43.220001220703125 43.229999542236328125 43.20999908447265625 43.20999908447265625 43.240001678466796875 43.25 43.259998321533203125 43.240001678466796875 43.240001678466796875 43.310001373291015625 43.439998626708984375 43.54000091552734375 43.65000152587890625 43.759998321533203125 43.779998779296875 43.70999908447265625 43.59999847412109375
 -9999 -9999 -9999 -9999 -9999 -9999 -9999 -9999 -9999 -9999 -9999 -9999 -9999 -9999 -9999 -9999 -9999 -9999 -9999 -9999 -9999 -9999 -9999 -9999 -9999 -9999 -9999 -9999 -9999 -9999 -9999 -9999 -9999 -9999 -9999 -9999 -9999 -9999 -9999 -9999 -9999 -9999 -9999 -9999 -9999 -9999 -9999 -9999 -9999 -9999 -9999 -9999 -9999 -9999 -9999 -9999 -9999 -9999 -9999 43.1399993896484375 43.189998626708984375 43.20999908447265625 43.229999542236328125 43.229999542236328125 43.200000762939453125 43.200000762939453125 43.200000762939453125 43.229999542236328125 43.259998321533203125 43.340000152587890625 43.479999542236328125 43.630001068115234375 43.770000457763671875 43.8899993896484375 44.029998779296875 44.04000091552734375 43.869998931884765625
 -9999 -9999 -9999 -9999 -9999 -9999 -9999 -9999 -9999 -9999 -9999 -9999 -9999 -9999 -9999 -9999 -9999 -9999 -9999 -9999 -9999 -9999 -9999 -9999 -9999 -9999 -9999 -9999 -9999 -9999 -9999 -9999 -9999 -9999 -9999 -9999 -9999 -9999 -9999 -9999 -9999 -9999 -9999 -9999 -9999 -9999 -9999 -9999 -9999 -9999 -9999 -9999 -9999 -9999 -9999 -9999 -9999 -9999 43.119998931884765625 43.18000030517578125 43.200000762939453125 43.220001220703125 43.229999542236328125 43.25 43.240001678466796875 43.18000030517578125 43.15000152587890625 43.200000762939453125 43.259998321533203125 43.340000152587890625 43.529998779296875 43.700000762939453125 43.869998931884765625 44.09999847412109375 44.279998779296875 44.310001373291015625 44.18000030517578125
 -9999 -9999 -9999 -9999 -9999 -9999 -9999 -9999 -9999 -9999 -9999 -9999 -9999 -9999 -9999 -9999 -9999 -9999 -9999 -9999 -9999 -9999 -9999 -9999 -9999 -9999 -9999 -9999 -9999 -9999 -9999 -9999 -9999 -9999 -9999 -9999 -9999 -9999 -9999 -9999 -9999 -9999 -9999 -9999 -9999 -9999 -9999 -9999 -9999 -9999 -9999 -9999 -9999 -9999 -9999 -9999 -9999 -9999 43.18000030517578125 43.279998779296875 43.3300018310546875 43.340000152587890625 43.340000152587890625 43.3300018310546875 43.25 43.229999542236328125 43.189998626708984375 43.20999908447265625 43.34999847412109375 43.45999908447265625 43.659999847412109375 43.8899993896484375 44.1100006103515625 44.299999237060546875 44.450000762939453125 44.520000457763671875 44.470001220703125
 -9999 -9999 -9999 -9999 -9999 -9999 -9999 -9999 -9999 -9999 -9999 -9999 -9999 -9999 -9999 -9999 -9999 -9999 -9999 -9999 -9999 -9999 -9999 -9999 -9999 -9999 -9999 -9999 -9999 -9999 -9999 -9999 -9999 -9999 -9999 43.240001678466796875 43.1100006103515625 43.009998321533203125 -9999 -9999 -9999 -9999 -9999 -9999 -9999 -9999 -9999 -9999 -9999 -9999 -9999 -9999 -9999 -9999 -9999 -9999 -9999 -9999 43.310001373291015625 43.40000152587890625 43.380001068115234375 43.34999847412109375 43.380001068115234375 43.31999969482421875 43.259998321533203125 43.229999542236328125 43.240001678466796875 43.29000091552734375 43.369998931884765625 43.529998779296875 43.729999542236328125 43.950000762939453125 44.1699981689453125 44.3600006103515625 44.5800018310546875 44.729999542236328125 44.720001220703125
 -9999 -9999 -9999 -9999 -9999 -9999 -9999 -9999 -9999 -9999 -9999 -9999 -9999 -9999 -9999 -9999 -9999 -9999 -9999 -9999 -9999 -9999 -9999 -9999 -9999 -9999 -9999 -9999 -9999 -9999 -9999 43.229999542236328125 43.1699981689453125 43.1699981689453125 43.15000152587890625 43.130001068115234375 43.0800018310546875 42.880001068115234375 -9999 -9999 -9999 -9999 -9999 -9999 -9999 -9999 -9999 -9999 -9999 -9999 -9999 -9999 -9999 -9999 -9999 -9999 -9999 -9999 43.43000030517578125 43.479999542236328125 43.5 43.470001220703125 43.470001220703125 43.43000030517578125 43.369998931884765625 43.279998779296875 43.240001678466796875 43.279998779296875 43.31999969482421875 43.470001220703125 43.659999847412109375 43.8899993896484375 44.15000152587890625 44.3899993896484375 44.619998931884765625 44.840000152587890625 44.880001068115234375
 -9999 -9999 -9999 -9999 -9999 -9999 -9999 -9999 -9999 -9999 -9999 -9999 -9999 -9999 -9999 -9999 -9999 -9999 -9999 -9999 -9999 -9999 -9999 -9999 -9999 -9999 43.470001220703125 43.29000091552734375 43.20999908447265625 43.15000152587890625 43.119998931884765625 43.119998931884765625 43.130001068115234375 43.130001068115234375 43.1100006103515625 43.049999237060546875 42.970001220703125 42.8600006103515625 -9999 -9999 -9999 -9999 -9999 -9999 -9999 -9999 -9999 -9999 -9999 -9999 -9999 -9999 -9999 -9999 -9999 -9999 -9999 43.479999542236328125 43.509998321533203125 43.56999969482421875 43.59999847412109375 43.56999969482421875 43.549999237060546875 43.479999542236328125 43.40000152587890625 43.409999847412109375 43.340000152587890625 43.3300018310546875 43.310001373291015625 43.439998626708984375 43.59999847412109375 43.759998321533203125 44.0800018310546875 44.3899993896484375 44.630001068115234375 44.869998931884765625 44.90000152587890625
 -9999 -9999 -9999 -9999 -9999 -9999 -9999 -9999 -9999 -9999 -9999 -9999 -9999 -9999 -9999 -9999 -9999 -9999 -9999 -9999 -9999 -9999 43.630001068115234375 43.479999542236328125 43.720001220703125 43.689998626708984375 43.5 43.34999847412109375 43.299999237060546875 43.200000762939453125 43.20999908447265625 43.119998931884765625 43.1100006103515625 43.06999969482421875 43.020000457763671875 42.979999542236328125 42.909999847412109375 42.840000152587890625 -9999 -9999 -9999 -9999 -9999 -9999 -9999 -9999 -9999 -9999 -9999 -9999 -9999 -9999 -9999 -9999 -9999 -9999 -9999 43.479999542236328125 43.560001373291015625 43.56999969482421875 43.590000152587890625 43.619998931884765625 43.56999969482421875 43.549999237060546875 43.520000457763671875 43.479999542236328125 43.43000030517578125 43.3600006103515625 43.3300018310546875 43.380001068115234375 43.509998321533203125 43.659999847412109375 43.979999542236328125 44.29000091552734375 44.549999237060546875 44.8899993896484375 44.939998626708984375
 -9999 -9999 -9999 -9999 -9999 -9999 -9999 -9999 -9999 -9999 -9999 -9999 -9999 -9999 -9999 -9999 -9999 -9999 -9999 -9999 43.439998626708984375 43.56999969482421875 43.659999847412109375 43.70999908447265625 43.720001220703125 43.659999847412109375 43.509998321533203125 43.380001068115234375 43.29000091552734375 43.229999542236328125 43.200000762939453125 43.1399993896484375 43.1399993896484375 43.049999237060546875 43.029998779296875 42.950000762939453125 42.880001068115234375 42.810001373291015625 -9999 -9999 -9999 -9999 -9999 -9999 -9999 -9999 -9999 -9999 -9999 -9999 -9999 -9999 -9999 -9999 -9999 -9999 -9999 43.45999908447265625 43.549999237060546875 43.59999847412109375 43.619998931884765625 43.6399993896484375 43.6399993896484375 43.6100006103515625 43.54000091552734375 43.479999542236328125 43.409999847412109375 43.34999847412109375 43.340000152587890625 43.340000152587890625 43.43000030517578125 43.619998931884765625 43.90000152587890625 44.15000152587890625 44.479999542236328125 44.799999237060546875 44.950000762939453125
 -9999 -9999 -9999 -9999 -9999 -9999 -9999 -9999 -9999 -9999 -9999 -9999 -9999 -9999 -9999 -9999 -9999 -9999 -9999 -9999 43.3300018310546875 43.470001220703125 43.59999847412109375 43.65000152587890625 43.759998321533203125 43.770000457763671875 43.729999542236328125 43.630001068115234375 43.549999237060546875 43.439998626708984375 43.34999847412109375 43.279998779296875 43.220001220703125 43.130001068115234375 43.090000152587890625 43.020000457763671875 42.8899993896484375 42.81999969482421875 42.81999969482421875 -9999 -9999 -9999 -9999 -9999 -9999 -9999 -9999 -9999 -9999 -9999 -9999 -9999 -9999 -9999 -9999 -9999 43.450000762939453125 43.450000762939453125 43.529998779296875 43.59999847412109375 43.630001068115234375 43.619998931884765625 43.630001068115234375 43.59999847412109375 43.56999969482421875 43.509998321533203125 43.45999908447265625 43.40000152587890625 43.340000152587890625 43.310001373291015625 43.34999847412109375 43.549999237060546875 43.799999237060546875 44.1100006103515625 44.3899993896484375 44.79000091552734375 44.950000762939453125
 -9999 -9999 -9999 -9999 -9999 -9999 -9999 -9999 -9999 -9999 -9999 -9999 -9999 -9999 -9999 -9999 -9999 -9999 -9999 43.40000152587890625 43.4199981689453125 43.520000457763671875 43.6399993896484375 43.689998626708984375 43.720001220703125 43.75 43.740001678466796875 43.65000152587890625 43.59999847412109375 43.529998779296875 43.43000030517578125 43.3600006103515625 43.270000457763671875 43.220001220703125 43.130001068115234375 43.049999237060546875 42.979999542236328125 42.909999847412109375 42.840000152587890625 -9999 -9999 -9999 -9999 -9999 -9999 -9999 -9999 -9999 -9999 -9999 -9999 -9999 -9999 -9999 43.220001220703125 43.340000152587890625 43.34999847412109375 43.43000030517578125 43.529998779296875 43.59999847412109375 43.630001068115234375 43.689998626708984375 43.6699981689453125 43.5800018310546875 43.509998321533203125 43.470001220703125 43.380001068115234375 43.299999237060546875 43.240001678466796875 43.220001220703125 43.279998779296875 43.409999847412109375 43.68000030517578125 44 44.4199981689453125 44.81999969482421875 44.990001678466796875
 -9999 -9999 -9999 -9999 -9999 -9999 -9999 -9999 -9999 -9999 -9999 -9999 -9999 -9999 -9999 -9999 -9999 -9999 43.770000457763671875 43.6699981689453125 43.6100006103515625 43.630001068115234375 43.659999847412109375 43.720001220703125 43.729999542236328125 43.75 43.759998321533203125 43.729999542236328125 43.659999847412109375 43.6100006103515625 43.56999969482421875 43.470001220703125 43.3600006103515625 43.31999969482421875 43.229999542236328125 43.130001068115234375 43.009998321533203125 42.970001220703125 42.95999908447265625 -9999 -9999 -9999 -9999 -9999 -9999 -9999 -9999 -9999 -9999 -9999 -9999 -9999 -9999 43.1100006103515625 43.1399993896484375 43.18000030517578125 43.340000152587890625 43.45999908447265625 43.529998779296875 43.630001068115234375 43.6699981689453125 43.68000030517578125 43.619998931884765625 43.560001373291015625 43.450000762939453125 43.369998931884765625 43.310001373291015625 43.229999542236328125 43.200000762939453125 43.220001220703125 43.270000457763671875 43.40000152587890625 43.659999847412109375 43.990001678466796875 44.450000762939453125 44.79000091552734375 44.93000030517578125
 -9999 -9999 -9999 -9999 -9999 -9999 -9999 -9999 -9999 -9999 -9999 -9999 -9999 -9999 -9999 -9999 -9999 -9999 44 43.840000152587890625 43.740001678466796875 43.6699981689453125 43.65000152587890625 43.6699981689453125 43.700000762939453125 43.75 43.740001678466796875 43.770000457763671875 43.75 43.70999908447265625 43.6699981689453125 43.59999847412109375 43.490001678466796875 43.4199981689453125 43.369998931884765625 43.240001678466796875 43.130001068115234375 43.029998779296875 43.060001373291015625 43.049999237060546875 43.049999237060546875 -9999 -9999 -9999 -9999 -9999 -9999 -9999 -9999 -9999 -9999 43.0800018310546875 43.009998321533203125 43.009998321533203125 43.0800018310546875 43.189998626708984375 43.3300018310546875 43.45999908447265625 43.56999969482421875 43.700000762939453125 43.79000091552734375 43.810001373291015625 43.770000457763671875 43.70999908447265625 43.59999847412109375 43.470001220703125 43.40000152587890625 43.340000152587890625 43.3600006103515625 43.3600006103515625 43.40000152587890625 43.619998931884765625 43.8600006103515625 44.200000762939453125 44.5800018310546875 44.84999847412109375 44.8899993896484375
 -9999 -9999 -9999 -9999 -9999 -9999 -9999 -9999 -9999 -9999 -9999 -9999 -9999 -9999 -9999 -9999 -9999 44.229999542236328125 44.049999237060546875 43.909999847412109375 43.810001373291015625 43.70999908447265625 43.6699981689453125 43.619998931884765625 43.6699981689453125 43.729999542236328125 43.779998779296875 43.8300018310546875 43.840000152587890625 43.840000152587890625 43.79000091552734375 43.689998626708984375 43.619998931884765625 43.520000457763671875 43.439998626708984375 43.3300018310546875 43.220001220703125 43.200000762939453125 43.159999847412109375 43.090000152587890625 43.1100006103515625 43.130001068115234375 43.1100006103515625 43.06999969482421875 43.0800018310546875 43.090000152587890625 43.1100006103515625 43.04000091552734375 42.95999908447265625 42.990001678466796875 43.0800018310546875 43.049999237060546875 42.979999542236328125 43.020000457763671875 43.0800018310546875 43.200000762939453125 43.340000152587890625 43.509998321533203125 43.68000030517578125 43.8300018310546875 43.93000030517578125 43.950000762939453125 43.909999847412109375 43.810001373291015625 43.70999908447265625 43.6399993896484375 43.590000152587890625 43.59999847412109375 43.6100006103515625 43.619998931884765625 43.689998626708984375 43.9199981689453125 44.130001068115234375 44.439998626708984375 44.740001678466796875 44.970001220703125 44.909999847412109375
 -9999 -9999 -9999 -9999 -9999 -9999 -9999 -9999 -9999 -9999 -9999 -9999 -9999 -9999 -9999 44.470001220703125 44.369998931884765625 44.229999542236328125 44.090000152587890625 44.009998321533203125 43.90000152587890625 43.770000457763671875 43.6399993896484375 43.6100006103515625 43.560001373291015625 43.619998931884765625 43.630001068115234375 43.6399993896484375 43.6699981689453125 43.700000762939453125 43.70999908447265625 43.689998626708984375 43.630001068115234375 43.5 43.40000152587890625 43.310001373291015625 43.200000762939453125 43.18000030517578125 43.1399993896484375 43.119998931884765625 43.119998931884765625 43.119998931884765625 43.1399993896484375 43.119998931884765625 43.119998931884765625 43.060001373291015625 43.009998321533203125 43.049999237060546875 43.020000457763671875 43.029998779296875 43.090000152587890625 43.0800018310546875 43.060001373291015625 43.060001373291015625 43.15000152587890625 43.299999237060546875 43.470001220703125 43.68000030517578125 43.880001068115234375 44.04000091552734375 44.1699981689453125 44.229999542236328125 44.220001220703125 44.18000030517578125 44.1399993896484375 44.06999969482421875 44.020000457763671875 43.95999908447265625 43.93000030517578125 43.970001220703125 44.04000091552734375 44.240001678466796875 44.45999908447265625 44.68000030517578125 44.8899993896484375 45.09999847412109375 44.970001220703125
 -9999 -9999 -9999 -9999 -9999 -9999 -9999 -9999 -9999 -9999 -9999 -9999 -9999 -9999 44.490001678466796875 44.369998931884765625 44.25 44.15000152587890625 44.0800018310546875 44.020000457763671875 43.880001068115234375 43.75 43.65000152587890625 43.590000152587890625 43.549999237060546875 43.59999847412109375 43.65000152587890625 43.6699981689453125 43.6699981689453125 43.659999847412109375 43.619998931884765625 43.59999847412109375 43.529998779296875 43.450000762939453125 43.380001068115234375 43.270000457763671875 43.259998321533203125 43.220001220703125 43.200000762939453125 43.20999908447265625 43.25 43.220001220703125 43.18000030517578125 43.130001068115234375 43.09999847412109375 43.04000091552734375 43.020000457763671875 43.0800018310546875 43.049999237060546875 43.009998321533203125 43.06999969482421875 43.049999237060546875 43.04000091552734375 43.09999847412109375 43.220001220703125 43.450000762939453125 43.68000030517578125 43.8899993896484375 44.130001068115234375 44.31999969482421875 44.470001220703125 44.549999237060546875 44.56999969482421875 44.56999969482421875 44.529998779296875 44.479999542236328125 44.369998931884765625 44.380001068115234375 44.369998931884765625 44.3899993896484375 44.490001678466796875 44.56999969482421875 44.75 44.8600006103515625 44.990001678466796875 45.130001068115234375 44.939998626708984375
 -9999 -9999 -9999 -9999 -9999 -9999 -9999 -9999 -9999 -9999 -9999 -9999 -9999 44.520000457763671875 44.40000152587890625 44.369998931884765625 44.270000457763671875 44.220001220703125 44.159999847412109375 44.090000152587890625 43.95999908447265625 43.8600006103515625 43.779998779296875 43.700000762939453125 43.70999908447265625 43.759998321533203125 43.799999237060546875 43.8300018310546875 43.84999847412109375 43.810001373291015625 43.75 43.70999908447265625 43.65000152587890625 43.6100006103515625 43.549999237060546875 43.509998321533203125 43.4199981689453125 43.369998931884765625 43.3600006103515625 43.340000152587890625 43.340000152587890625 43.380001068115234375 43.3300018310546875 43.3300018310546875 43.340000152587890625 43.31999969482421875 43.299999237060546875 43.279998779296875 43.18000030517578125 43.130001068115234375 43.1100006103515625 43.119998931884765625 43.1699981689453125 43.270000457763671875 43.43000030517578125 43.70999908447265625 43.979999542236328125 44.220001220703125 44.479999542236328125 44.689998626708984375 44.840000152587890625 44.95999908447265625 45.020000457763671875 45.060001373291015625 45.020000457763671875 44.95999908447265625 44.95999908447265625 44.909999847412109375 44.909999847412109375 44.9199981689453125 44.9199981689453125 44.939998626708984375 45.04000091552734375 45.09999847412109375 45.130001068115234375 45.220001220703125 44.90000152587890625
 -9999 -9999 -9999 -9999 -9999 -9999 -9999 -9999 -9999 -9999 -9999 -9999 44.409999847412109375 44.29000091552734375 44.20999908447265625 44.1399993896484375 44.04000091552734375 44.029998779296875 44.060001373291015625 44.04000091552734375 43.990001678466796875 43.909999847412109375 43.840000152587890625 43.799999237060546875 43.799999237060546875 43.81999969482421875 43.909999847412109375 43.990001678466796875 44 43.9199981689453125 43.869998931884765625 43.869998931884765625 43.810001373291015625 43.779998779296875 43.70999908447265625 43.68000030517578125 43.6399993896484375 43.56999969482421875 43.59999847412109375 43.6100006103515625 43.689998626708984375 43.75 43.70999908447265625 43.659999847412109375 43.6399993896484375 43.59999847412109375 43.560001373291015625 43.490001678466796875 43.509998321533203125 43.450000762939453125 43.479999542236328125 43.56999969482421875 43.619998931884765625 43.740001678466796875 43.93000030517578125 44.1699981689453125 44.3899993896484375 44.630001068115234375 44.909999847412109375 45.1399993896484375 45.279998779296875 45.43000030517578125 45.490001678466796875 45.509998321533203125 45.54000091552734375 45.509998321533203125 45.470001220703125 45.439998626708984375 45.439998626708984375 45.409999847412109375 45.369998931884765625 45.3600006103515625 45.3600006103515625 45.310001373291015625 45.240001678466796875 45.229999542236328125 44.880001068115234375
 -9999 -9999 -9999 -9999 -9999 -9999 -9999 -9999 -9999 -9999 -9999 44.340000152587890625 44.189998626708984375 44.189998626708984375 44.200000762939453125 44.159999847412109375 44.119998931884765625 44.1100006103515625 44.119998931884765625 44.1100006103515625 44.090000152587890625 44.020000457763671875 43.939998626708984375 43.90000152587890625 43.93000030517578125 43.93000030517578125 44.020000457763671875 44.090000152587890625 44.06999969482421875 44.04000091552734375 43.979999542236328125 43.93000030517578125 43.8899993896484375 43.8300018310546875 43.779998779296875 43.779998779296875 43.759998321533203125 43.759998321533203125 43.770000457763671875 43.770000457763671875 43.70999908447265625 43.75 43.759998321533203125 43.740001678466796875 43.740001678466796875 43.6699981689453125 43.68000030517578125 43.6699981689453125 43.700000762939453125 43.700000762939453125 43.720001220703125 43.799999237060546875 43.90000152587890625 44.049999237060546875 44.259998321533203125 44.490001678466796875 44.779998779296875 45.020000457763671875 45.31999969482421875 45.56999969482421875 45.770000457763671875 45.950000762939453125 46.020000457763671875 46.0800018310546875 46.119998931884765625 46.049999237060546875 45.979999542236328125 45.950000762939453125 45.880001068115234375 45.840000152587890625 45.779998779296875 45.720001220703125 45.619998931884765625 45.509998321533203125 45.369998931884765625 45.200000762939453125 44.810001373291015625
 -9999 -9999 -9999 -9999 -9999 -9999 -9999 -9999 -9999 -9999 -9999 43.95999908447265625 43.95999908447265625 44 44.04000091552734375 44.0800018310546875 44.15000152587890625 44.18000030517578125 44.189998626708984375 44.20999908447265625 44.15000152587890625 44.09999847412109375 44.049999237060546875 44.020000457763671875 44.049999237060546875 44.04000091552734375 44.090000152587890625 44.090000152587890625 44.06999969482421875 44.049999237060546875 44.020000457763671875 43.990001678466796875 43.95999908447265625 43.93000030517578125 43.8899993896484375 43.8899993896484375 43.93000030517578125 43.9199981689453125 44.009998321533203125 44.029998779296875 44.060001373291015625 44.049999237060546875 44.020000457763671875 43.95999908447265625 43.90000152587890625 43.810001373291015625 43.840000152587890625 43.84999847412109375 43.8899993896484375 43.95999908447265625 44.09999847412109375 44.200000762939453125 44.40000152587890625 44.549999237060546875 44.799999237060546875 45.029998779296875 45.340000152587890625 45.56999969482421875 45.810001373291015625 46.0800018310546875 46.279998779296875 46.409999847412109375 46.470001220703125 46.470001220703125 46.439998626708984375 46.34999847412109375 46.310001373291015625 46.310001373291015625 46.229999542236328125 46.1699981689453125 46.09999847412109375 45.95999908447265625 45.81999969482421875 45.5800018310546875 45.369998931884765625 45.15000152587890625 44.759998321533203125
 -9999 -9999 -9999 -9999 -9999 -9999 -9999 -9999 -9999 -9999 -9999 43.70999908447265625 43.720001220703125 43.779998779296875 43.950000762939453125 44.060001373291015625 44.15000152587890625 44.279998779296875 44.340000152587890625 44.310001373291015625 44.270000457763671875 44.20999908447265625 44.159999847412109375 44.1399993896484375 44.119998931884765625 44.1100006103515625 44.159999847412109375 44.1699981689453125 44.1699981689453125 44.130001068115234375 44.060001373291015625 44.060001373291015625 44.04000091552734375 44.029998779296875 44.029998779296875 44.0800018310546875 44.119998931884765625 44.15000152587890625 44.25 44.310001373291015625 44.3300018310546875 44.310001373291015625 44.220001220703125 44.229999542236328125 44.15000152587890625 44.1100006103515625 44.06999969482421875 44.1100006103515625 44.18000030517578125 44.3300018310546875 44.5 44.6699981689453125 44.84999847412109375 45.06999969482421875 45.29000091552734375 45.590000152587890625 45.9199981689453125 46.18000030517578125 46.380001068115234375 46.6100006103515625 46.79000091552734375 46.869998931884765625 46.8899993896484375 46.84999847412109375 46.720001220703125 46.56999969482421875 46.45999908447265625 46.439998626708984375 46.369998931884765625 46.29000091552734375 46.200000762939453125 46.029998779296875 45.84999847412109375 45.6100006103515625 45.31999969482421875 45.1100006103515625 44.68000030517578125
 -9999 -9999 -9999 -9999 -9999 -9999 -9999 -9999 -9999 -9999 43.4199981689453125 43.470001220703125 43.520000457763671875 43.619998931884765625 43.81999969482421875 44.029998779296875 44.270000457763671875 44.40000152587890625 44.43000030517578125 44.369998931884765625 44.3300018310546875 44.279998779296875 44.229999542236328125 44.189998626708984375 44.18000030517578125 44.240001678466796875 44.240001678466796875 44.29000091552734375 44.279998779296875 44.259998321533203125 44.220001220703125 44.200000762939453125 44.200000762939453125 44.159999847412109375 44.189998626708984375 44.25 44.31999969482421875 44.40000152587890625 44.470001220703125 44.590000152587890625 44.59999847412109375 44.590000152587890625 44.520000457763671875 44.520000457763671875 44.470001220703125 44.409999847412109375 44.3600006103515625 44.409999847412109375 44.509998321533203125 44.6699981689453125 44.8300018310546875 45.06999969482421875 45.310001373291015625 45.509998321533203125 45.79000091552734375 46.0800018310546875 46.340000152587890625 46.6100006103515625 46.79000091552734375 46.970001220703125 47.159999847412109375 47.240001678466796875 47.240001678466796875 47.0800018310546875 46.909999847412109375 46.729999542236328125 46.529998779296875 46.439998626708984375 46.310001373291015625 46.220001220703125 46.1399993896484375 45.95999908447265625 45.810001373291015625 45.560001373291015625 45.310001373291015625 45.020000457763671875 44.6100006103515625
 -9999 -9999 -9999 -9999 -9999 -9999 -9999 -9999 -9999 -9999 43.189998626708984375 43.220001220703125 43.279998779296875 43.479999542236328125 43.720001220703125 43.950000762939453125 44.18000030517578125 44.299999237060546875 44.299999237060546875 44.3300018310546875 44.3300018310546875 44.340000152587890625 44.340000152587890625 44.299999237060546875 44.29000091552734375 44.299999237060546875 44.270000457763671875 44.31999969482421875 44.31999969482421875 44.369998931884765625 44.299999237060546875 44.29000091552734375 44.3300018310546875 44.34999847412109375 44.369998931884765625 44.439998626708984375 44.509998321533203125 44.630001068115234375 44.720001220703125 44.79000091552734375 44.79000091552734375 44.799999237060546875 44.770000457763671875 44.79000091552734375 44.779998779296875 44.759998321533203125 44.720001220703125 44.759998321533203125 44.840000152587890625 44.979999542236328125 45.189998626708984375 45.439998626708984375 45.68000030517578125 45.880001068115234375 46.119998931884765625 46.450000762939453125 46.70999908447265625 46.8899993896484375 47.020000457763671875 47.18000030517578125 47.270000457763671875 47.340000152587890625 47.31999969482421875 47.189998626708984375 47.020000457763671875 46.799999237060546875 46.659999847412109375 46.509998321533203125 46.3600006103515625 46.229999542236328125 46.06999969482421875 45.90000152587890625 45.6699981689453125 45.45999908447265625 45.1699981689453125 44.869998931884765625 44.450000762939453125
 -9999 -9999 -9999 -9999 -9999 -9999 -9999 -9999 -9999 -9999 43.029998779296875 43.049999237060546875 43.1399993896484375 43.259998321533203125 43.490001678466796875 43.75 43.909999847412109375 44.119998931884765625 44.240001678466796875 44.3300018310546875 44.40000152587890625 44.43000030517578125 44.450000762939453125 44.409999847412109375 44.3600006103515625 44.369998931884765625 44.369998931884765625 44.439998626708984375 44.450000762939453125 44.470001220703125 44.45999908447265625 44.45999908447265625 44.490001678466796875 44.549999237060546875 44.59999847412109375 44.68000030517578125 44.75 44.8300018310546875 44.950000762939453125 45.04000091552734375 45.06999969482421875 45.09999847412109375 45.0800018310546875 45.090000152587890625 45.15000152587890625 45.159999847412109375 45.130001068115234375 45.119998931884765625 45.189998626708984375 45.340000152587890625 45.5800018310546875 45.8600006103515625 46.09999847412109375 46.31999969482421875 46.560001373291015625 46.79000091552734375 46.979999542236328125 47.119998931884765625 47.18000030517578125 47.259998321533203125 47.340000152587890625 47.31999969482421875 47.270000457763671875 47.1399993896484375 46.979999542236328125 46.799999237060546875 46.6699981689453125 46.529998779296875 46.40000152587890625 46.25 46.06999969482421875 45.909999847412109375 45.689998626708984375 45.380001068115234375 45.09999847412109375 44.840000152587890625 44.439998626708984375
 -9999 -9999 -9999 -9999 -9999 -9999 -9999 -9999 -9999 -9999 42.8899993896484375 42.939998626708984375 43.04000091552734375 43.159999847412109375 43.3600006103515625 43.520000457763671875 43.720001220703125 43.939998626708984375 44.130001068115234375 44.270000457763671875 44.40000152587890625 44.45999908447265625 44.490001678466796875 44.45999908447265625 44.4199981689453125 44.3899993896484375 44.380001068115234375 44.40000152587890625 44.439998626708984375 44.479999542236328125 44.5 44.549999237060546875 44.5800018310546875 44.659999847412109375 44.759998321533203125 44.84999847412109375 44.8899993896484375 44.970001220703125 45.049999237060546875 45.15000152587890625 45.200000762939453125 45.270000457763671875 45.34999847412109375 45.43000030517578125 45.479999542236328125 45.549999237060546875 45.56999969482421875 45.509998321533203125 45.520000457763671875 45.68000030517578125 45.90000152587890625 46.119998931884765625 46.31999969482421875 46.560001373291015625 46.729999542236328125 46.909999847412109375 47.0800018310546875 47.200000762939453125 47.259998321533203125 47.299999237060546875 47.3300018310546875 47.29000091552734375 47.200000762939453125 47.060001373291015625 46.93000030517578125 46.770000457763671875 46.59999847412109375 46.409999847412109375 46.279998779296875 46.1399993896484375 46.009998321533203125 45.8300018310546875 45.65000152587890625 45.3899993896484375 45.09999847412109375 44.840000152587890625 44.4199981689453125
 -9999 -9999 -9999 -9999 -9999 -9999 -9999 -9999 -9999 -9999 42.810001373291015625 42.880001068115234375 42.950000762939453125 43.060001373291015625 43.229999542236328125 43.369998931884765625 43.520000457763671875 43.70999908447265625 43.939998626708984375 44.130001068115234375 44.29000091552734375 44.34999847412109375 44.4199981689453125 44.43000030517578125 44.3899993896484375 44.369998931884765625 44.3600006103515625 44.369998931884765625 44.40000152587890625 44.4199981689453125 44.490001678466796875 44.56999969482421875 44.6699981689453125 44.770000457763671875 44.869998931884765625 44.939998626708984375 45.04000091552734375 45.09999847412109375 45.20999908447265625 45.31999969482421875 45.3899993896484375 45.490001678466796875 45.59999847412109375 45.70999908447265625 45.810001373291015625 45.909999847412109375 45.939998626708984375 45.90000152587890625 45.93000030517578125 46.020000457763671875 46.15000152587890625 46.3300018310546875 46.520000457763671875 46.68000030517578125 46.799999237060546875 46.970001220703125 47.09999847412109375 47.189998626708984375 47.20999908447265625 47.20999908447265625 47.200000762939453125 47.1399993896484375 47.029998779296875 46.8899993896484375 46.70999908447265625 46.54000091552734375 46.40000152587890625 46.229999542236328125 46.06999969482421875 45.939998626708984375 45.840000152587890625 45.700000762939453125 45.54000091552734375 45.29000091552734375 45.009998321533203125 44.75 44.369998931884765625
 -9999 -9999 -9999 -9999 -9999 -9999 -9999 -9999 -9999 -9999 42.810001373291015625 42.84999847412109375 42.9199981689453125 43.020000457763671875 43.15000152587890625 43.279998779296875 43.4199981689453125 43.56999969482421875 43.779998779296875 43.970001220703125 44.09999847412109375 44.189998626708984375 44.270000457763671875 44.29000091552734375 44.3300018310546875 44.3300018310546875 44.340000152587890625 44.3600006103515625 44.380001068115234375 44.4199981689453125 44.479999542236328125 44.590000152587890625 44.70999908447265625 44.8300018310546875 44.950000762939453125 45.060001373291015625 45.15000152587890625 45.25 45.380001068115234375 45.5 45.590000152587890625 45.68000030517578125 45.770000457763671875 45.8899993896484375 46.020000457763671875 46.119998931884765625 46.189998626708984375 46.189998626708984375 46.20999908447265625 46.270000457763671875 46.3300018310546875 46.450000762939453125 46.590000152587890625 46.6699981689453125 46.740001678466796875 46.84999847412109375 46.970001220703125 47.04000091552734375 47.04000091552734375 47.029998779296875 46.990001678466796875 46.909999847412109375 46.79000091552734375 46.619998931884765625 46.4199981689453125 46.310001373291015625 46.20999908447265625 46.06999969482421875 45.9199981689453125 45.810001373291015625 45.659999847412109375 45.549999237060546875 45.4199981689453125 45.159999847412109375 44.93000030517578125 44.700000762939453125 44.369998931884765625
 -9999 -9999 -9999 -9999 -9999 -9999 -9999 -9999 -9999 -9999 42.779998779296875 42.810001373291015625 42.8600006103515625 42.95999908447265625 43.0800018310546875 43.220001220703125 43.3300018310546875 43.45999908447265625 43.6399993896484375 43.799999237060546875 43.939998626708984375 44.049999237060546875 44.130001068115234375 44.1699981689453125 44.200000762939453125 44.18000030517578125 44.200000762939453125 44.220001220703125 44.259998321533203125 44.34999847412109375 44.450000762939453125 44.590000152587890625 44.729999542236328125 44.8600006103515625 45.009998321533203125 45.130001068115234375 45.259998321533203125 45.380001068115234375 45.5 45.6100006103515625 45.700000762939453125 45.810001373291015625 45.909999847412109375 46 46.130001068115234375 46.20999908447265625 46.25 46.299999237060546875 46.310001373291015625 46.340000152587890625 46.380001068115234375 46.4199981689453125 46.5 46.590000152587890625 46.68000030517578125 46.75 46.8300018310546875 46.869998931884765625 46.8600006103515625 46.8300018310546875 46.779998779296875 46.700000762939453125 46.5800018310546875 46.40000152587890625 46.25 46.090000152587890625 46.020000457763671875 45.909999847412109375 45.810001373291015625 45.720001220703125 45.5800018310546875 45.439998626708984375 45.25 45.0800018310546875 44.84999847412109375 44.6699981689453125 44.299999237060546875
 -9999 -9999 -9999 -9999 -9999 -9999 -9999 -9999 42.619998931884765625 42.659999847412109375 42.65000152587890625 42.720001220703125 42.799999237060546875 42.909999847412109375 43.04000091552734375 43.20999908447265625 43.380001068115234375 43.54000091552734375 43.619998931884765625 43.70999908447265625 43.81999969482421875 43.93000030517578125 44.009998321533203125 44.04000091552734375 44.0800018310546875 44.1100006103515625 44.1699981689453125 44.25 44.3300018310546875 44.40000152587890625 44.45999908447265625 44.590000152587890625 44.729999542236328125 44.8899993896484375 45.060001373291015625 45.220001220703125 45.3899993896484375 45.520000457763671875 45.6399993896484375 45.799999237060546875 45.9199981689453125 46.020000457763671875 46.090000152587890625 46.130001068115234375 46.1699981689453125 46.229999542236328125 46.25 46.29000091552734375 46.310001373291015625 46.34999847412109375 46.4199981689453125 46.470001220703125 46.520000457763671875 46.6100006103515625 46.65000152587890625 46.740001678466796875 46.79000091552734375 46.84999847412109375 46.81999969482421875 46.770000457763671875 46.700000762939453125 46.6399993896484375 46.479999542236328125 46.310001373291015625 46.1699981689453125 46.049999237060546875 45.95999908447265625 45.880001068115234375 45.779998779296875 45.68000030517578125 45.54000091552734375 45.380001068115234375 45.20999908447265625 45.049999237060546875 44.84999847412109375 44.6399993896484375 44.240001678466796875
 -9999 -9999 -9999 -9999 -9999 -9999 42.470001220703125 42.560001373291015625 42.619998931884765625 42.59999847412109375 42.560001373291015625 42.59999847412109375 42.68000030517578125 42.810001373291015625 42.950000762939453125 43.09999847412109375 43.220001220703125 43.3300018310546875 43.439998626708984375 43.549999237060546875 43.6399993896484375 43.75 43.779998779296875 43.84999847412109375 43.93000030517578125 43.979999542236328125 44.029998779296875 44.1100006103515625 44.18000030517578125 44.270000457763671875 44.369998931884765625 44.5 44.689998626708984375 44.8600006103515625 45.06999969482421875 45.259998321533203125 45.479999542236328125 45.6399993896484375 45.799999237060546875 45.970001220703125 46.090000152587890625 46.15000152587890625 46.1699981689453125 46.1699981689453125 46.18000030517578125 46.189998626708984375 46.20999908447265625 46.200000762939453125 46.229999542236328125 46.31999969482421875 46.40000152587890625 46.5 46.590000152587890625 46.6399993896484375 46.75 46.81999969482421875 46.81999969482421875 46.8600006103515625 46.79000091552734375 46.75 46.659999847412109375 46.549999237060546875 46.409999847412109375 46.229999542236328125 46.130001068115234375 46.020000457763671875 45.90000152587890625 45.8600006103515625 45.759998321533203125 45.659999847412109375 45.529998779296875 45.3899993896484375 45.25 45.049999237060546875 44.810001373291015625 44.689998626708984375 44.259998321533203125
 -9999 -9999 -9999 -9999 -9999 42.470001220703125 42.529998779296875 42.590000152587890625 42.590000152587890625 42.520000457763671875 42.509998321533203125 42.490001678466796875 42.560001373291015625 42.68000030517578125 42.810001373291015625 42.979999542236328125 43.1100006103515625 43.20999908447265625 43.270000457763671875 43.340000152587890625 43.4199981689453125 43.529998779296875 43.56999969482421875 43.659999847412109375 43.75 43.810001373291015625 43.9199981689453125 43.979999542236328125 44.06999969482421875 44.18000030517578125 44.310001373291015625 44.450000762939453125 44.619998931884765625 44.8300018310546875 45.060001373291015625 45.3300018310546875 45.56999969482421875 45.810001373291015625 45.950000762939453125 46.090000152587890625 46.1399993896484375 46.18000030517578125 46.1399993896484375 46.119998931884765625 46.119998931884765625 46.1699981689453125 46.159999847412109375 46.189998626708984375 46.25 46.34999847412109375 46.369998931884765625 46.43000030517578125 46.520000457763671875 46.619998931884765625 46.70999908447265625 46.79000091552734375 46.810001373291015625 46.81999969482421875 46.759998321533203125 46.700000762939453125 46.5800018310546875 46.439998626708984375 46.340000152587890625 46.20999908447265625 46.04000091552734375 45.880001068115234375 45.81999969482421875 45.81999969482421875 45.68000030517578125 45.6399993896484375 45.509998321533203125 45.34999847412109375 45.189998626708984375 45.020000457763671875 44.79000091552734375 44.740001678466796875 44.3300018310546875
 -9999 -9999 -9999 -9999 42.59999847412109375 42.520000457763671875 42.520000457763671875 42.54000091552734375 42.490001678466796875 42.45999908447265625 42.479999542236328125 42.490001678466796875 42.529998779296875 42.590000152587890625 42.720001220703125 42.8600006103515625 42.939998626708984375 43.060001373291015625 43.159999847412109375 43.20999908447265625 43.279998779296875 43.40000152587890625 43.439998626708984375 43.509998321533203125 43.560001373291015625 43.6699981689453125 43.8300018310546875 43.90000152587890625 44.020000457763671875 44.15000152587890625 44.31999969482421875 44.509998321533203125 44.700000762939453125 44.90000152587890625 45.15000152587890625 45.43000030517578125 45.6699981689453125 45.880001068115234375 46.009998321533203125 46.0800018310546875 46.1399993896484375 46.1699981689453125 46.200000762939453125 46.240001678466796875 46.20999908447265625 46.229999542236328125 46.229999542236328125 46.279998779296875 46.3600006103515625 46.450000762939453125 46.520000457763671875 46.59999847412109375 46.729999542236328125 46.810001373291015625 46.880001068115234375 46.8899993896484375 46.9199981689453125 46.8600006103515625 46.8300018310546875 46.729999542236328125 46.5800018310546875 46.470001220703125 46.310001373291015625 46.220001220703125 46.06999969482421875 45.990001678466796875 45.90000152587890625 45.909999847412109375 45.70999908447265625 45.59999847412109375 45.5 45.3600006103515625 45.20999908447265625 45.029998779296875 44.84999847412109375 44.79000091552734375 44.439998626708984375
 -9999 -9999 -9999 -9999 42.6399993896484375 42.56999969482421875 42.509998321533203125 42.5 42.43000030517578125 42.439998626708984375 42.45999908447265625 42.5 42.549999237060546875 42.6100006103515625 42.720001220703125 42.8300018310546875 42.90000152587890625 43.020000457763671875 43.06999969482421875 43.130001068115234375 43.189998626708984375 43.25 43.31999969482421875 43.409999847412109375 43.470001220703125 43.560001373291015625 43.689998626708984375 43.869998931884765625 44.049999237060546875 44.189998626708984375 44.369998931884765625 44.59999847412109375 44.840000152587890625 45.060001373291015625 45.3300018310546875 45.590000152587890625 45.810001373291015625 45.93000030517578125 46.0800018310546875 46.1399993896484375 46.18000030517578125 46.229999542236328125 46.259998321533203125 46.3300018310546875 46.3600006103515625 46.40000152587890625 46.5 46.529998779296875 46.6100006103515625 46.6699981689453125 46.729999542236328125 46.81999969482421875 46.909999847412109375 47 47.020000457763671875 47.119998931884765625 47.090000152587890625 47 46.909999847412109375 46.810001373291015625 46.700000762939453125 46.590000152587890625 46.409999847412109375 46.240001678466796875 46.1699981689453125 46.029998779296875 45.970001220703125 45.840000152587890625 45.720001220703125 45.619998931884765625 45.549999237060546875 45.439998626708984375 45.34999847412109375 45.15000152587890625 44.990001678466796875 44.950000762939453125 44.630001068115234375
 -9999 -9999 -9999 42.720001220703125 42.689998626708984375 42.630001068115234375 42.560001373291015625 42.479999542236328125 42.439998626708984375 42.439998626708984375 42.45999908447265625 42.479999542236328125 42.529998779296875 42.619998931884765625 42.729999542236328125 42.81999969482421875 42.880001068115234375 42.9199981689453125 42.979999542236328125 43.0800018310546875 43.09999847412109375 43.15000152587890625 43.229999542236328125 43.31999969482421875 43.450000762939453125 43.56999969482421875 43.68000030517578125 43.90000152587890625 44.130001068115234375 44.369998931884765625 44.56999969482421875 44.779998779296875 45.009998321533203125 45.25 45.479999542236328125 45.729999542236328125 45.909999847412109375 46.020000457763671875 46.09999847412109375 46.20999908447265625 46.279998779296875 46.3899993896484375 46.470001220703125 46.520000457763671875 46.6100006103515625 46.70999908447265625 46.810001373291015625 46.8899993896484375 46.970001220703125 47.049999237060546875 47.130001068115234375 47.18000030517578125 47.25 47.31999969482421875 47.34999847412109375 47.34999847412109375 47.299999237060546875 47.240001678466796875 47.09999847412109375 47 46.840000152587890625 46.700000762939453125 46.520000457763671875 46.34999847412109375 46.229999542236328125 46.1399993896484375 46.020000457763671875 45.909999847412109375 45.79000091552734375 45.700000762939453125 45.59999847412109375 45.5 45.43000030517578125 45.29000091552734375 45.1100006103515625 45.029998779296875 44.770000457763671875
 -9999 -9999 42.8600006103515625 42.8600006103515625 42.8300018310546875 42.799999237060546875 42.65000152587890625 42.54000091552734375 42.470001220703125 42.470001220703125 42.490001678466796875 42.529998779296875 42.619998931884765625 42.689998626708984375 42.75 42.8899993896484375 42.93000030517578125 42.970001220703125 42.990001678466796875 42.970001220703125 43.04000091552734375 43.06999969482421875 43.1699981689453125 43.279998779296875 43.409999847412109375 43.54000091552734375 43.770000457763671875 43.990001678466796875 44.189998626708984375 44.549999237060546875 44.700000762939453125 44.909999847412109375 45.119998931884765625 45.3600006103515625 45.56999969482421875 45.759998321533203125 45.90000152587890625 45.990001678466796875 46 46.0800018310546875 46.229999542236328125 46.3899993896484375 46.59999847412109375 46.740001678466796875 46.81999969482421875 46.970001220703125 47.029998779296875 47.130001068115234375 47.220001220703125 47.29000091552734375 47.369998931884765625 47.40000152587890625 47.439998626708984375 47.490001678466796875 47.549999237060546875 47.54000091552734375 47.520000457763671875 47.409999847412109375 47.270000457763671875 47.1399993896484375 46.979999542236328125 46.799999237060546875 46.65000152587890625 46.409999847412109375 46.270000457763671875 46.18000030517578125 46.04000091552734375 45.9199981689453125 45.8600006103515625 45.799999237060546875 45.729999542236328125 45.630001068115234375 45.56999969482421875 45.490001678466796875 45.34999847412109375 45.25 44.979999542236328125
 -9999 -9999 42.759998321533203125 42.810001373291015625 42.84999847412109375 42.81999969482421875 42.68000030517578125 42.59999847412109375 42.549999237060546875 42.549999237060546875 42.56999969482421875 42.5800018310546875 42.619998931884765625 42.619998931884765625 42.68000030517578125 42.729999542236328125 42.779998779296875 42.880001068115234375 42.9199981689453125 42.939998626708984375 43.009998321533203125 43.060001373291015625 43.159999847412109375 43.259998321533203125 43.470001220703125 43.6699981689453125 43.840000152587890625 44.06999969482421875 44.3300018310546875 44.560001373291015625 44.840000152587890625 45.060001373291015625 45.270000457763671875 45.45999908447265625 45.630001068115234375 45.770000457763671875 45.8600006103515625 45.93000030517578125 46.009998321533203125 46.130001068115234375 46.279998779296875 46.45999908447265625 46.659999847412109375 46.81999969482421875 46.9199981689453125 47.06999969482421875 47.240001678466796875 47.34999847412109375 47.470001220703125 47.529998779296875 47.54000091552734375 47.549999237060546875 47.54000091552734375 47.56999969482421875 47.590000152587890625 47.590000152587890625 47.54000091552734375 47.450000762939453125 47.31999969482421875 47.18000030517578125 47.049999237060546875 46.880001068115234375 46.770000457763671875 46.619998931884765625 46.479999542236328125 46.299999237060546875 46.15000152587890625 46.060001373291015625 45.95999908447265625 45.869998931884765625 45.79000091552734375 45.75 45.75 45.659999847412109375 45.56999969482421875 45.450000762939453125 45.20999908447265625
 -9999 42.54000091552734375 42.689998626708984375 42.79000091552734375 42.79000091552734375 42.720001220703125 42.6699981689453125 42.65000152587890625 42.659999847412109375 42.630001068115234375 42.619998931884765625 42.5800018310546875 42.590000152587890625 42.5800018310546875 42.619998931884765625 42.659999847412109375 42.720001220703125 42.810001373291015625 42.880001068115234375 42.9199981689453125 42.939998626708984375 43.049999237060546875 43.15000152587890625 43.270000457763671875 43.520000457763671875 43.759998321533203125 43.950000762939453125 44.189998626708984375 44.4199981689453125 44.68000030517578125 44.939998626708984375 45.1399993896484375 45.369998931884765625 45.549999237060546875 45.6399993896484375 45.729999542236328125 45.81999969482421875 45.9199981689453125 46.009998321533203125 46.1399993896484375 46.299999237060546875 46.5 46.720001220703125 46.90000152587890625 47.049999237060546875 47.220001220703125 47.409999847412109375 47.56999969482421875 47.659999847412109375 47.689998626708984375 47.700000762939453125 47.65000152587890625 47.6100006103515625 47.6100006103515625 47.59999847412109375 47.56999969482421875 47.520000457763671875 47.439998626708984375 47.3300018310546875 47.220001220703125 47.09999847412109375 47 46.880001068115234375 46.75 46.5800018310546875 46.409999847412109375 46.229999542236328125 46.090000152587890625 46 45.93000030517578125 45.9199981689453125 45.939998626708984375 45.909999847412109375 45.84999847412109375 45.770000457763671875 45.659999847412109375 45.470001220703125
 -9999 42.479999542236328125 42.6100006103515625 42.70999908447265625 42.740001678466796875 42.659999847412109375 42.659999847412109375 42.6699981689453125 42.689998626708984375 42.689998626708984375 42.68000030517578125 42.65000152587890625 42.6100006103515625 42.56999969482421875 42.54000091552734375 42.6100006103515625 42.700000762939453125 42.770000457763671875 42.81999969482421875 42.84999847412109375 42.90000152587890625 43 43.1399993896484375 43.31999969482421875 43.509998321533203125 43.759998321533203125 43.990001678466796875 44.229999542236328125 44.43000030517578125 44.68000030517578125 44.939998626708984375 45.1699981689453125 45.380001068115234375 45.529998779296875 45.630001068115234375 45.70999908447265625 45.759998321533203125 45.840000152587890625 45.950000762939453125 46.049999237060546875 46.229999542236328125 46.45999908447265625 46.700000762939453125 46.9199981689453125 47.09999847412109375 47.270000457763671875 47.43000030517578125 47.560001373291015625 47.659999847412109375 47.6699981689453125 47.6399993896484375 47.59999847412109375 47.560001373291015625 47.549999237060546875 47.560001373291015625 47.54000091552734375 47.490001678466796875 47.409999847412109375 47.340000152587890625 47.18000030517578125 47.060001373291015625 46.979999542236328125 46.869998931884765625 46.75 46.59999847412109375 46.450000762939453125 46.3300018310546875 46.20999908447265625 46.15000152587890625 46.119998931884765625 46.15000152587890625 46.200000762939453125 46.229999542236328125 46.20999908447265625 46.029998779296875 45.93000030517578125 45.740001678466796875
 42.29000091552734375 42.450000762939453125 42.549999237060546875 42.56999969482421875 42.59999847412109375 42.619998931884765625 42.630001068115234375 42.6399993896484375 42.6699981689453125 42.6699981689453125 42.6699981689453125 42.6399993896484375 42.6100006103515625 42.5800018310546875 42.5800018310546875 42.6399993896484375 42.6699981689453125 42.720001220703125 42.759998321533203125 42.81999969482421875 42.869998931884765625 42.950000762939453125 43.090000152587890625 43.299999237060546875 43.529998779296875 43.779998779296875 44.049999237060546875 44.299999237060546875 44.5 44.700000762939453125 44.93000030517578125 45.1399993896484375 45.310001373291015625 45.45999908447265625 45.549999237060546875 45.6699981689453125 45.729999542236328125 45.799999237060546875 45.93000030517578125 46.09999847412109375 46.34999847412109375 46.619998931884765625 46.869998931884765625 47.0800018310546875 47.229999542236328125 47.3600006103515625 47.5 47.5800018310546875 47.590000152587890625 47.59999847412109375 47.590000152587890625 47.56999969482421875 47.54000091552734375 47.54000091552734375 47.54000091552734375 47.520000457763671875 47.45999908447265625 47.40000152587890625 47.29000091552734375 47.119998931884765625 47.009998321533203125 46.90000152587890625 46.79000091552734375 46.6399993896484375 46.5 46.439998626708984375 46.34999847412109375 46.279998779296875 46.31999969482421875 46.299999237060546875 46.380001068115234375 46.4199981689453125 46.450000762939453125 46.40000152587890625 46.270000457763671875 46.18000030517578125 46.090000152587890625
 42.310001373291015625 42.3600006103515625 42.369998931884765625 42.340000152587890625 42.340000152587890625 42.3600006103515625 42.439998626708984375 42.529998779296875 42.59999847412109375 42.619998931884765625 42.630001068115234375 42.56999969482421875 42.560001373291015625 42.54000091552734375 42.549999237060546875 42.59999847412109375 42.6699981689453125 42.740001678466796875 42.770000457763671875 42.799999237060546875 42.840000152587890625 42.93000030517578125 43.0800018310546875 43.310001373291015625 43.520000457763671875 43.759998321533203125 43.990001678466796875 44.220001220703125 44.4199981689453125 44.630001068115234375 44.8300018310546875 45.04000091552734375 45.189998626708984375 45.340000152587890625 45.439998626708984375 45.56999969482421875 45.68000030517578125 45.770000457763671875 45.909999847412109375 46.15000152587890625 46.4199981689453125 46.70999908447265625 46.990001678466796875 47.220001220703125 47.380001068115234375 47.509998321533203125 47.590000152587890625 47.6100006103515625 47.630001068115234375 47.5800018310546875 47.54000091552734375 47.529998779296875 47.509998321533203125 47.509998321533203125 47.5 47.520000457763671875 47.490001678466796875 47.409999847412109375 47.279998779296875 47.1399993896484375 46.990001678466796875 46.8600006103515625 46.740001678466796875 46.59999847412109375 46.509998321533203125 46.490001678466796875 46.470001220703125 46.43000030517578125 46.43000030517578125 46.470001220703125 46.529998779296875 46.560001373291015625 46.65000152587890625 46.56999969482421875 46.45999908447265625 46.479999542236328125 46.4199981689453125
 -9999 -9999 -9999 -9999 -9999 -9999 -9999 -9999 -9999 42.630001068115234375 42.68000030517578125 42.700000762939453125 42.630001068115234375 42.619998931884765625 42.59999847412109375 42.659999847412109375 42.70999908447265625 42.75 42.81999969482421875 42.840000152587890625 42.8600006103515625 42.95999908447265625 43.130001068115234375 43.369998931884765625 43.5800018310546875 43.79000091552734375 44 44.200000762939453125 44.3899993896484375 44.5800018310546875 44.740001678466796875 44.90000152587890625 45.04000091552734375 45.200000762939453125 45.369998931884765625 45.490001678466796875 45.659999847412109375 45.8300018310546875 46.049999237060546875 46.310001373291015625 46.590000152587890625 46.90000152587890625 47.18000030517578125 47.40000152587890625 47.520000457763671875 47.619998931884765625 47.659999847412109375 47.68000030517578125 47.659999847412109375 47.619998931884765625 47.56999969482421875 47.5 47.479999542236328125 47.490001678466796875 47.490001678466796875 47.490001678466796875 47.439998626708984375 47.340000152587890625 47.240001678466796875 47.0800018310546875 46.939998626708984375 46.79000091552734375 46.65000152587890625 46.549999237060546875 46.5 46.40000152587890625 46.43000030517578125 46.470001220703125 46.470001220703125 46.479999542236328125 46.56999969482421875 46.659999847412109375 46.779998779296875 46.740001678466796875 46.68000030517578125 46.70999908447265625 46.6100006103515625
 -9999 -9999 -9999 -9999 -9999 -9999 -9999 -9999 -9999 42.520000457763671875 42.6399993896484375 42.689998626708984375 42.720001220703125 42.700000762939453125 42.700000762939453125 42.759998321533203125 42.810001373291015625 42.880001068115234375 42.950000762939453125 43.020000457763671875 43.060001373291015625 43.1399993896484375 43.279998779296875 43.470001220703125 43.65000152587890625 43.8300018310546875 43.990001678466796875 44.159999847412109375 44.3600006103515625 44.5 44.65000152587890625 44.8300018310546875 44.979999542236328125 45.1699981689453125 45.369998931884765625 45.529998779296875 45.740001678466796875 45.990001678466796875 46.259998321533203125 46.45999908447265625 46.779998779296875 47.060001373291015625 47.279998779296875 47.520000457763671875 47.630001068115234375 47.689998626708984375 47.729999542236328125 47.700000762939453125 47.6699981689453125 47.590000152587890625 47.509998321533203125 47.5 47.4199981689453125 47.45999908447265625 47.409999847412109375 47.40000152587890625 47.380001068115234375 47.310001373291015625 47.159999847412109375 47.009998321533203125 46.8899993896484375 46.729999542236328125 46.59999847412109375 46.56999969482421875 46.5 46.509998321533203125 46.490001678466796875 46.509998321533203125 46.529998779296875 46.590000152587890625 46.630001068115234375 46.720001220703125 46.8300018310546875 46.8899993896484375 46.880001068115234375 46.880001068115234375 46.720001220703125
 -9999 -9999 -9999 -9999 -9999 -9999 -9999 -9999 -9999 -9999 42.5800018310546875 42.659999847412109375 42.770000457763671875 42.81999969482421875 42.8899993896484375 42.90000152587890625 42.93000030517578125 43.009998321533203125 43.049999237060546875 43.1100006103515625 43.1699981689453125 43.29000091552734375 43.409999847412109375 43.590000152587890625 43.779998779296875 43.909999847412109375 44.029998779296875 44.220001220703125 44.40000152587890625 44.45999908447265625 44.56999969482421875 44.759998321533203125 44.939998626708984375 45.090000152587890625 45.3300018310546875 45.549999237060546875 45.81999969482421875 46.130001068115234375 46.43000030517578125 46.740001678466796875 47.049999237060546875 47.310001373291015625 47.5 47.659999847412109375 47.700000762939453125 47.70999908447265625 47.70999908447265625 47.6699981689453125 47.59999847412109375 47.470001220703125 47.3899993896484375 47.340000152587890625 47.270000457763671875 47.259998321533203125 47.25 47.259998321533203125 47.25 47.15000152587890625 47.049999237060546875 46.90000152587890625 46.75 46.6100006103515625 46.479999542236328125 46.43000030517578125 46.369998931884765625 46.4199981689453125 46.5 46.529998779296875 46.549999237060546875 46.6399993896484375 46.729999542236328125 46.759998321533203125 46.8600006103515625 46.950000762939453125 47.020000457763671875 46.950000762939453125 46.799999237060546875
 -9999 -9999 -9999 -9999 -9999 -9999 -9999 -9999 -9999 42.470001220703125 42.65000152587890625 42.740001678466796875 42.8899993896484375 42.939998626708984375 42.95999908447265625 42.979999542236328125 43.029998779296875 43.1100006103515625 43.159999847412109375 43.240001678466796875 43.34999847412109375 43.490001678466796875 43.6100006103515625 43.770000457763671875 43.8899993896484375 44.009998321533203125 44.119998931884765625 44.259998321533203125 44.34999847412109375 44.450000762939453125 44.5800018310546875 44.75 44.90000152587890625 45.1399993896484375 45.3600006103515625 45.659999847412109375 45.970001220703125 46.3300018310546875 46.700000762939453125 47.009998321533203125 47.31999969482421875 47.520000457763671875 47.6699981689453125 47.79000091552734375 47.8300018310546875 47.779998779296875 47.70999908447265625 47.659999847412109375 47.529998779296875 47.409999847412109375 47.3300018310546875 47.270000457763671875 47.200000762939453125 47.220001220703125 47.20999908447265625 47.18000030517578125 47.1399993896484375 47.119998931884765625 46.95999908447265625 46.840000152587890625 46.70999908447265625 46.6399993896484375 46.549999237060546875 46.509998321533203125 46.5 46.529998779296875 46.59999847412109375 46.68000030517578125 46.770000457763671875 46.79000091552734375 46.84999847412109375 46.880001068115234375 46.979999542236328125 47.049999237060546875 47.1100006103515625 46.990001678466796875 46.799999237060546875
 -9999 -9999 -9999 -9999 -9999 -9999 -9999 -9999 -9999 42.630001068115234375 42.8300018310546875 42.9199981689453125 43.029998779296875 43.049999237060546875 43.06999969482421875 43.119998931884765625 43.200000762939453125 43.259998321533203125 43.340000152587890625 43.4199981689453125 43.529998779296875 43.619998931884765625 43.740001678466796875 43.869998931884765625 43.95999908447265625 44.119998931884765625 44.240001678466796875 44.34999847412109375 44.450000762939453125 44.56999969482421875 44.6699981689453125 44.840000152587890625 45.020000457763671875 45.240001678466796875 45.549999237060546875 45.8600006103515625 46.200000762939453125 46.560001373291015625 46.939998626708984375 47.220001220703125 47.490001678466796875 47.6699981689453125 47.799999237060546875 47.8600006103515625 47.909999847412109375 47.8300018310546875 47.689998626708984375 47.6100006103515625 47.509998321533203125 47.40000152587890625 47.3300018310546875 47.259998321533203125 47.229999542236328125 47.229999542236328125 47.220001220703125 47.1699981689453125 47.119998931884765625 47.060001373291015625 46.970001220703125 46.8600006103515625 46.75 46.700000762939453125 46.65000152587890625 46.6399993896484375 46.630001068115234375 46.689998626708984375 46.770000457763671875 46.810001373291015625 46.90000152587890625 46.880001068115234375 46.950000762939453125 47.009998321533203125 47.09999847412109375 47.1399993896484375 47.18000030517578125 47.049999237060546875 46.8300018310546875
 -9999 -9999 -9999 -9999 -9999 -9999 -9999 -9999 -9999 42.81999969482421875 42.9199981689453125 43.04000091552734375 43.060001373291015625 43.090000152587890625 43.1399993896484375 43.18000030517578125 43.270000457763671875 43.31999969482421875 43.43000030517578125 43.54000091552734375 43.6100006103515625 43.720001220703125 43.84999847412109375 43.95999908447265625 44.090000152587890625 44.20999908447265625 44.340000152587890625 44.470001220703125 44.59999847412109375 44.740001678466796875 44.8899993896484375 44.990001678466796875 45.200000762939453125 45.439998626708984375 45.689998626708984375 46.020000457763671875 46.369998931884765625 46.70999908447265625 47.06999969482421875 47.31999969482421875 47.490001678466796875 47.65000152587890625 47.729999542236328125 47.770000457763671875 47.79000091552734375 47.70999908447265625 47.6100006103515625 47.490001678466796875 47.439998626708984375 47.31999969482421875 47.25 47.20999908447265625 47.090000152587890625 47.020000457763671875 46.990001678466796875 46.950000762939453125 46.90000152587890625 46.8600006103515625 46.81999969482421875 46.75 46.700000762939453125 46.619998931884765625 46.6100006103515625 46.659999847412109375 46.700000762939453125 46.779998779296875 46.8899993896484375 46.950000762939453125 47.009998321533203125 47.04000091552734375 47.0800018310546875 47.1100006103515625 47.159999847412109375 47.200000762939453125 47.20999908447265625 47.1100006103515625 46.9199981689453125
 -9999 -9999 -9999 -9999 -9999 -9999 -9999 -9999 42.840000152587890625 42.8899993896484375 42.990001678466796875 43.049999237060546875 43.09999847412109375 43.1699981689453125 43.240001678466796875 43.25 43.380001068115234375 43.450000762939453125 43.490001678466796875 43.619998931884765625 43.729999542236328125 43.84999847412109375 43.95999908447265625 44.1100006103515625 44.270000457763671875 44.3899993896484375 44.5 44.6399993896484375 44.75 44.90000152587890625 45.020000457763671875 45.189998626708984375 45.40000152587890625 45.630001068115234375 45.880001068115234375 46.189998626708984375 46.490001678466796875 46.81999969482421875 47.119998931884765625 47.34999847412109375 47.470001220703125 47.560001373291015625 47.630001068115234375 47.659999847412109375 47.6399993896484375 47.5800018310546875 47.5 47.369998931884765625 47.279998779296875 47.1699981689453125 47.119998931884765625 47.029998779296875 46.979999542236328125 46.90000152587890625 46.8600006103515625 46.81999969482421875 46.75 46.70999908447265625 46.6699981689453125 46.630001068115234375 46.630001068115234375 46.6100006103515625 46.68000030517578125 46.75 46.84999847412109375 46.970001220703125 47.0800018310546875 47.119998931884765625 47.189998626708984375 47.220001220703125 47.20999908447265625 47.220001220703125 47.25 47.279998779296875 47.270000457763671875 47.189998626708984375 47.090000152587890625
 -9999 -9999 -9999 -9999 -9999 -9999 -9999 42.799999237060546875 42.939998626708984375 43 43.04000091552734375 43.1100006103515625 43.18000030517578125 43.229999542236328125 43.29000091552734375 43.4199981689453125 43.479999542236328125 43.59999847412109375 43.759998321533203125 43.81999969482421875 43.93000030517578125 44.06999969482421875 44.200000762939453125 44.3300018310546875 44.479999542236328125 44.59999847412109375 44.689998626708984375 44.840000152587890625 44.970001220703125 45.119998931884765625 45.279998779296875 45.439998626708984375 45.65000152587890625 45.880001068115234375 46.119998931884765625 46.40000152587890625 46.6399993896484375 46.90000152587890625 47.1100006103515625 47.270000457763671875 47.3899993896484375 47.45999908447265625 47.529998779296875 47.549999237060546875 47.529998779296875 47.490001678466796875 47.3600006103515625 47.259998321533203125 47.1699981689453125 47.060001373291015625 46.950000762939453125 46.90000152587890625 46.869998931884765625 46.810001373291015625 46.779998779296875 46.729999542236328125 46.659999847412109375 46.590000152587890625 46.549999237060546875 46.509998321533203125 46.5 46.529998779296875 46.5800018310546875 46.659999847412109375 46.81999969482421875 46.93000030517578125 47.04000091552734375 47.15000152587890625 47.259998321533203125 47.310001373291015625 47.31999969482421875 47.3600006103515625 47.380001068115234375 47.380001068115234375 47.3600006103515625 47.31999969482421875 47.29000091552734375
 -9999 -9999 -9999 -9999 -9999 -9999 -9999 42.90000152587890625 43.009998321533203125 43.029998779296875 43.09999847412109375 43.1699981689453125 43.229999542236328125 43.279998779296875 43.3600006103515625 43.479999542236328125 43.59999847412109375 43.700000762939453125 43.81999969482421875 43.979999542236328125 44.090000152587890625 44.25 44.40000152587890625 44.54000091552734375 44.689998626708984375 44.81999969482421875 44.95999908447265625 45.130001068115234375 45.299999237060546875 45.4199981689453125 45.56999969482421875 45.720001220703125 45.880001068115234375 46.090000152587890625 46.299999237060546875 46.520000457763671875 46.720001220703125 46.90000152587890625 47.090000152587890625 47.159999847412109375 47.25 47.29000091552734375 47.31999969482421875 47.380001068115234375 47.3899993896484375 47.340000152587890625 47.20999908447265625 47.1399993896484375 47.04000091552734375 46.909999847412109375 46.8300018310546875 46.729999542236328125 46.630001068115234375 46.59999847412109375 46.5800018310546875 46.529998779296875 46.479999542236328125 46.4199981689453125 46.409999847412109375 46.3899993896484375 46.439998626708984375 46.520000457763671875 46.5800018310546875 46.689998626708984375 46.8300018310546875 46.990001678466796875 47.159999847412109375 47.259998321533203125 47.3899993896484375 47.450000762939453125 47.5 47.56999969482421875 47.59999847412109375 47.630001068115234375 47.56999969482421875 47.560001373291015625 47.560001373291015625
 -9999 -9999 -9999 -9999 -9999 -9999 42.8600006103515625 42.950000762939453125 43.029998779296875 43.0800018310546875 43.200000762939453125 43.270000457763671875 43.3300018310546875 43.4199981689453125 43.529998779296875 43.6399993896484375 43.729999542236328125 43.880001068115234375 43.990001678466796875 44.15000152587890625 44.299999237060546875 44.439998626708984375 44.59999847412109375 44.729999542236328125 44.880001068115234375 45.029998779296875 45.15000152587890625 45.3300018310546875 45.5 45.68000030517578125 45.8300018310546875 45.970001220703125 46.130001068115234375 46.279998779296875 46.479999542236328125 46.70999908447265625 46.81999969482421875 46.939998626708984375 47.04000091552734375 47.130001068115234375 47.159999847412109375 47.220001220703125 47.279998779296875 47.299999237060546875 47.279998779296875 47.220001220703125 47.130001068115234375 47.060001373291015625 46.979999542236328125 46.8600006103515625 46.810001373291015625 46.740001678466796875 46.6699981689453125 46.6100006103515625 46.549999237060546875 46.490001678466796875 46.439998626708984375 46.40000152587890625 46.369998931884765625 46.409999847412109375 46.45999908447265625 46.560001373291015625 46.6399993896484375 46.729999542236328125 46.8600006103515625 47.009998321533203125 47.18000030517578125 47.340000152587890625 47.45999908447265625 47.5800018310546875 47.689998626708984375 47.799999237060546875 47.869998931884765625 47.90000152587890625 47.8899993896484375 47.8899993896484375 47.909999847412109375
 -9999 -9999 -9999 -9999 -9999 -9999 42.90000152587890625 43.04000091552734375 43.1100006103515625 43.229999542236328125 43.340000152587890625 43.409999847412109375 43.479999542236328125 43.56999969482421875 43.689998626708984375 43.840000152587890625 43.970001220703125 44.1100006103515625 44.25 44.40000152587890625 44.54000091552734375 44.6399993896484375 44.779998779296875 44.939998626708984375 45.06999969482421875 45.25 45.439998626708984375 45.619998931884765625 45.81999969482421875 45.990001678466796875 46.1399993896484375 46.279998779296875 46.3899993896484375 46.520000457763671875 46.68000030517578125 46.840000152587890625 46.939998626708984375 47.009998321533203125 47.009998321533203125 47.060001373291015625 47.090000152587890625 47.130001068115234375 47.159999847412109375 47.159999847412109375 47.159999847412109375 47.119998931884765625 47.04000091552734375 46.95999908447265625 46.84999847412109375 46.759998321533203125 46.689998626708984375 46.619998931884765625 46.560001373291015625 46.5 46.439998626708984375 46.369998931884765625 46.3300018310546875 46.299999237060546875 46.279998779296875 46.299999237060546875 46.34999847412109375 46.4199981689453125 46.56999969482421875 46.68000030517578125 46.799999237060546875 46.950000762939453125 47.119998931884765625 47.3300018310546875 47.520000457763671875 47.68000030517578125 47.84999847412109375 47.979999542236328125 48.09999847412109375 48.18000030517578125 48.229999542236328125 48.240001678466796875 48.279998779296875
 -9999 -9999 -9999 -9999 -9999 42.810001373291015625 42.93000030517578125 43.049999237060546875 43.200000762939453125 43.310001373291015625 43.4199981689453125 43.529998779296875 43.6399993896484375 43.779998779296875 43.8899993896484375 44.04000091552734375 44.189998626708984375 44.3600006103515625 44.5 44.619998931884765625 44.770000457763671875 44.880001068115234375 44.979999542236328125 45.1100006103515625 45.25 45.439998626708984375 45.619998931884765625 45.8300018310546875 46.04000091552734375 46.189998626708984375 46.3300018310546875 46.470001220703125 46.59999847412109375 46.700000762939453125 46.79000091552734375 46.84999847412109375 46.90000152587890625 46.880001068115234375 46.8600006103515625 46.84999847412109375 46.869998931884765625 46.880001068115234375 46.8899993896484375 46.9199981689453125 46.9199981689453125 46.909999847412109375 46.81999969482421875 46.729999542236328125 46.65000152587890625 46.549999237060546875 46.45999908447265625 46.369998931884765625 46.299999237060546875 46.25 46.18000030517578125 46.15000152587890625 46.130001068115234375 46.119998931884765625 46.159999847412109375 46.189998626708984375 46.279998779296875 46.3600006103515625 46.479999542236328125 46.6399993896484375 46.79000091552734375 47 47.200000762939453125 47.409999847412109375 47.6399993896484375 47.8300018310546875 48.04000091552734375 48.189998626708984375 48.340000152587890625 48.439998626708984375 48.5800018310546875 48.590000152587890625 48.56999969482421875
 -9999 -9999 -9999 -9999 42.75 42.81999969482421875 42.9199981689453125 43.159999847412109375 43.380001068115234375 43.549999237060546875 43.689998626708984375 43.8300018310546875 44 44.090000152587890625 44.220001220703125 44.3899993896484375 44.549999237060546875 44.700000762939453125 44.84999847412109375 44.939998626708984375 45.04000091552734375 45.159999847412109375 45.25 45.34999847412109375 45.520000457763671875 45.689998626708984375 45.8899993896484375 46.06999969482421875 46.20999908447265625 46.34999847412109375 46.479999542236328125 46.560001373291015625 46.65000152587890625 46.70999908447265625 46.740001678466796875 46.759998321533203125 46.729999542236328125 46.729999542236328125 46.659999847412109375 46.630001068115234375 46.619998931884765625 46.6100006103515625 46.6399993896484375 46.65000152587890625 46.630001068115234375 46.6100006103515625 46.56999969482421875 46.490001678466796875 46.40000152587890625 46.3300018310546875 46.25 46.159999847412109375 46.159999847412109375 46.049999237060546875 45.990001678466796875 45.950000762939453125 45.909999847412109375 45.939998626708984375 46.009998321533203125 46.060001373291015625 46.15000152587890625 46.259998321533203125 46.3600006103515625 46.5 46.68000030517578125 46.869998931884765625 47.049999237060546875 47.340000152587890625 47.6399993896484375 47.90000152587890625 48.159999847412109375 48.369998931884765625 48.560001373291015625 48.729999542236328125 48.8600006103515625 48.90000152587890625 48.9199981689453125
 -9999 -9999 -9999 -9999 42.8300018310546875 42.970001220703125 43.15000152587890625 43.380001068115234375 43.6100006103515625 43.79000091552734375 44 44.15000152587890625 44.31999969482421875 44.490001678466796875 44.619998931884765625 44.779998779296875 44.95999908447265625 45.119998931884765625 45.240001678466796875 45.340000152587890625 45.43000030517578125 45.520000457763671875 45.619998931884765625 45.70999908447265625 45.840000152587890625 46 46.18000030517578125 46.340000152587890625 46.479999542236328125 46.5800018310546875 46.65000152587890625 46.720001220703125 46.740001678466796875 46.720001220703125 46.720001220703125 46.689998626708984375 46.630001068115234375 46.619998931884765625 46.5800018310546875 46.549999237060546875 46.529998779296875 46.520000457763671875 46.529998779296875 46.54000091552734375 46.5 46.45999908447265625 46.3600006103515625 46.29000091552734375 46.200000762939453125 46.130001068115234375 46.009998321533203125 45.95999908447265625 45.84999847412109375 45.759998321533203125 45.630001068115234375 45.560001373291015625 45.619998931884765625 45.659999847412109375 45.759998321533203125 45.8600006103515625 45.979999542236328125 46.1100006103515625 46.240001678466796875 46.45999908447265625 46.689998626708984375 46.869998931884765625 47.1100006103515625 47.409999847412109375 47.68000030517578125 47.979999542236328125 48.259998321533203125 48.520000457763671875 48.729999542236328125 48.93000030517578125 49.04000091552734375 49.1399993896484375 49.229999542236328125
 -9999 -9999 -9999 42.8300018310546875 42.950000762939453125 43.049999237060546875 43.31999969482421875 43.529998779296875 43.75 44.029998779296875 44.270000457763671875 44.450000762939453125 44.6399993896484375 44.840000152587890625 45.04000091552734375 45.189998626708984375 45.31999969482421875 45.490001678466796875 45.6399993896484375 45.759998321533203125 45.84999847412109375 45.8899993896484375 45.93000030517578125 46.04000091552734375 46.159999847412109375 46.310001373291015625 46.470001220703125 46.6100006103515625 46.729999542236328125 46.8300018310546875 46.909999847412109375 46.8899993896484375 46.840000152587890625 46.759998321533203125 46.630001068115234375 46.5800018310546875 46.479999542236328125 46.450000762939453125 46.43000030517578125 46.380001068115234375 46.3300018310546875 46.3600006103515625 46.369998931884765625 46.3600006103515625 46.3899993896484375 46.340000152587890625 46.259998321533203125 46.15000152587890625 46.090000152587890625 45.950000762939453125 45.81999969482421875 45.729999542236328125 45.5800018310546875 45.520000457763671875 45.439998626708984375 45.43000030517578125 45.45999908447265625 45.490001678466796875 45.630001068115234375 45.740001678466796875 45.84999847412109375 45.95999908447265625 46.130001068115234375 46.340000152587890625 46.630001068115234375 46.840000152587890625 47.159999847412109375 47.43000030517578125 47.70999908447265625 47.990001678466796875 48.29000091552734375 48.549999237060546875 48.79000091552734375 -9999 -9999 -9999 -9999
 -9999 -9999 -9999 42.950000762939453125 43.119998931884765625 43.279998779296875 43.560001373291015625 43.810001373291015625 44.029998779296875 44.310001373291015625 44.529998779296875 44.759998321533203125 44.950000762939453125 45.1399993896484375 45.340000152587890625 45.490001678466796875 45.659999847412109375 45.79000091552734375 45.939998626708984375 46.060001373291015625 46.1100006103515625 46.1699981689453125 46.200000762939453125 46.25 46.3300018310546875 46.4199981689453125 46.54000091552734375 46.65000152587890625 46.689998626708984375 46.779998779296875 46.79000091552734375 46.799999237060546875 46.70999908447265625 46.6399993896484375 46.45999908447265625 46.369998931884765625 46.270000457763671875 46.25 46.240001678466796875 46.18000030517578125 46.240001678466796875 46.259998321533203125 46.259998321533203125 46.299999237060546875 46.279998779296875 46.229999542236328125 -9999 -9999 -9999 -9999 -9999 -9999 -9999 -9999 -9999 -9999 -9999 -9999 -9999 -9999 -9999 -9999 -9999 -9999 -9999 -9999 -9999 -9999 -9999 -9999 -9999 -9999 -9999 -9999 -9999 -9999 -9999
 -9999 -9999 -9999 43.0800018310546875 43.299999237060546875 43.560001373291015625 43.810001373291015625 44.1100006103515625 44.340000152587890625 44.56999969482421875 44.840000152587890625 45.04000091552734375 45.20999908447265625 45.409999847412109375 45.6100006103515625 45.770000457763671875 45.909999847412109375 46.060001373291015625 46.159999847412109375 46.259998321533203125 46.34999847412109375 46.380001068115234375 46.40000152587890625 46.409999847412109375 46.45999908447265625 46.529998779296875 46.65000152587890625 46.759998321533203125 46.810001373291015625 46.90000152587890625 46.840000152587890625 46.840000152587890625 46.729999542236328125 46.54000091552734375 46.409999847412109375 46.240001678466796875 46.090000152587890625 46.020000457763671875 46.020000457763671875 46 46.020000457763671875 -9999 -9999 -9999 -9999 -9999 -9999 -9999 -9999 -9999 -9999 -9999 -9999 -9999 -9999 -9999 -9999 -9999 -9999 -9999 -9999 -9999 -9999 -9999 -9999 -9999 -9999 -9999 -9999 -9999 -9999 -9999 -9999 -9999 -9999 -9999 -9999
 -9999 -9999 -9999 43.279998779296875 43.509998321533203125 43.759998321533203125 44.029998779296875 44.29000091552734375 44.56999969482421875 44.81999969482421875 45.0800018310546875 45.299999237060546875 45.490001678466796875 45.6699981689453125 45.909999847412109375 46.0800018310546875 46.279998779296875 46.40000152587890625 46.54000091552734375 46.6100006103515625 46.619998931884765625 46.619998931884765625 46.6100006103515625 46.590000152587890625 46.619998931884765625 46.6699981689453125 46.729999542236328125 46.840000152587890625 46.8600006103515625 46.869998931884765625 46.779998779296875 46.6699981689453125 46.590000152587890625 46.43000030517578125 46.29000091552734375 46.119998931884765625 46.009998321533203125 -9999 -9999 -9999 -9999 -9999 -9999 -9999 -9999 -9999 -9999 -9999 -9999 -9999 -9999 -9999 -9999 -9999 -9999 -9999 -9999 -9999 -9999 -9999 -9999 -9999 -9999 -9999 -9999 -9999 -9999 -9999 -9999 -9999 -9999 -9999 -9999 -9999 -9999 -9999 -9999
 -9999 -9999 43.340000152587890625 43.54000091552734375 43.740001678466796875 43.990001678466796875 44.270000457763671875 44.529998779296875 44.840000152587890625 45.1100006103515625 45.299999237060546875 45.54000091552734375 45.75 45.9199981689453125 46.1399993896484375 46.299999237060546875 46.5 46.6100006103515625 46.659999847412109375 46.729999542236328125 46.75 46.770000457763671875 46.75 46.729999542236328125 46.740001678466796875 46.770000457763671875 46.84999847412109375 46.939998626708984375 46.970001220703125 46.970001220703125 46.8899993896484375 46.770000457763671875 -9999 -9999 -9999 -9999 -9999 -9999 -9999 -9999 -9999 -9999 -9999 -9999 -9999 -9999 -9999 -9999 -9999 -9999 -9999 -9999 -9999 -9999 -9999 -9999 -9999 -9999 -9999 -9999 -9999 -9999 -9999 -9999 -9999 -9999 -9999 -9999 -9999 -9999 -9999 -9999 -9999 -9999 -9999 -9999 -9999
 -9999 -9999 43.45999908447265625 43.720001220703125 43.93000030517578125 44.1699981689453125 44.43000030517578125 44.700000762939453125 45.060001373291015625 45.340000152587890625 45.590000152587890625 45.840000152587890625 46.04000091552734375 46.220001220703125 46.40000152587890625 46.560001373291015625 46.729999542236328125 46.84999847412109375 46.90000152587890625 46.939998626708984375 46.979999542236328125 46.990001678466796875 46.970001220703125 46.9199981689453125 46.8899993896484375 46.90000152587890625 46.95999908447265625 -9999 -9999 -9999 -9999 -9999 -9999 -9999 -9999 -9999 -9999 -9999 -9999 -9999 -9999 -9999 -9999 -9999 -9999 -9999 -9999 -9999 -9999 -9999 -9999 -9999 -9999 -9999 -9999 -9999 -9999 -9999 -9999 -9999 -9999 -9999 -9999 -9999 -9999 -9999 -9999 -9999 -9999 -9999 -9999 -9999 -9999 -9999 -9999 -9999 -9999
 -9999 -9999 43.5800018310546875 43.8899993896484375 44.130001068115234375 44.409999847412109375 44.720001220703125 45.0800018310546875 45.380001068115234375 45.700000762939453125 45.939998626708984375 46.1699981689453125 46.380001068115234375 46.549999237060546875 -9999 -9999 -9999 -9999 -9999 -9999 -9999 -9999 -9999 -9999 -9999 -9999 -9999 -9999 -9999 -9999 -9999 -9999 -9999 -9999 -9999 -9999 -9999 -9999 -9999 -9999 -9999 -9999 -9999 -9999 -9999 -9999 -9999 -9999 -9999 -9999 -9999 -9999 -9999 -9999 -9999 -9999 -9999 -9999 -9999 -9999 -9999 -9999 -9999 -9999 -9999 -9999 -9999 -9999 -9999 -9999 -9999 -9999 -9999 -9999 -9999 -9999 -9999
